0.028 0.108947 0.0480819 -0.4727680466860151 -0.7724709157634566 -0.42400360650854924 
0.0285 0.108917 0.0475734 -0.42538112425105196 -0.7772620788117676 -0.4635887832682331 
0.029 0.108879 0.0469377 -0.42494344572007686 -0.7680272582046779 -0.479121277542704 
0.0295 0.108887 0.0470649 -0.3999737123752491 -0.7834603164362813 -0.4756164021334036 
0.03 0.108872 0.0468106 -0.40436863250296445 -0.78760279211975 -0.46493854528620904 
0.0305 0.108842 0.0463021 -0.424776508600759 -0.7856411097420636 -0.4498143666271769 
0.031 0.108805 0.0456665 -0.45770709231391143 -0.7714052694424656 -0.4420838471624379 
0.0315 0.108775 0.045158 -0.5194287585130504 -0.7490709086539583 -0.4112013358902477 
0.032 0.10873 0.0443952 -0.5697032873999466 -0.719885285238382 -0.3964887645607972 
0.0325 0.108715 0.044141 -0.6009811195420073 -0.7014042777987413 -0.3832149958439279 
0.033 0.108655 0.0431239 -0.6407023341996398 -0.6736044977655442 -0.36845284574984905 
0.0335 0.108603 0.0422341 0.663424493052631 0.6626923375943937 0.3474288527332434 
0.034 0.108566 0.0415984 0.678205178690469 0.6670143527053122 0.30843084943394106 
0.0345 0.108514 0.0407085 0.6912368097409776 0.663950959798857 0.28523813882665117 
0.035 0.108432 0.0393102 0.7211852872145589 0.6448462115283262 0.25311093414315256 
0.0355 0.108357 0.0380389 0.7284393997935805 0.6404416595088318 0.24333212199366933 
0.036 0.107924 0.0306656 0.5905249188557442 0.3801592633104062 0.7118702513307503 
0.0365 0.107924 0.0306656 0.6080865565225007 0.37392907605099673 0.7002912150386122 
0.037 0.107879 0.0299028 0.6329910559763974 0.3503744222086519 0.6903333160987081 
0.0375 0.107864 0.0296485 0.6343240060512368 0.33933665516780875 0.6946104590391902 
0.038 0.107819 0.0288858 0.6132005086283657 0.31805933391191926 0.7230652780554602 
0.0385 0.107797 0.0285044 0.5810363745748179 0.2963191429696859 0.7580182695230127 
0.039 0.107782 0.0282502 0.5562856785643969 0.2896458204646416 0.7788783874980183 
0.0395 0.107767 0.0279959 0.512459184068828 0.26681943715201273 0.8162064522051968 
0.04 0.107752 0.0277416 0.5152755272509718 0.2685992005947371 0.8138461773923259 
0.0405 0.10773 0.0273603 0.5358589106930017 0.2758579980489938 0.7979709222417262 
0.041 0.107715 0.027106 0.5590571589640813 0.295635166158124 0.7746321330423033 
0.0415 0.107693 0.0267246 0.5779883750207747 0.3124157060531946 0.7538739052070502 
0.042 0.10767 0.0263432 0.605379370937953 0.30575566530763015 0.7348668521406151 
0.0425 0.107648 0.0259619 0.648987491630306 0.3102304312807156 0.6946742511528585 
0.043 0.107618 0.0254534 0.6678027162828527 0.3198912184094882 0.6720931040486406 
0.0435 0.107573 0.0246906 0.7058608283658755 0.3036615596247217 0.6399610520843606 
0.044 0.107551 0.0243092 0.7235846458742154 0.2675007788813055 0.6362928520366867 
0.0445 0.107513 0.0236736 0.7209710910481086 0.2280551128343986 0.6543634703916391 
0.045 0.107476 0.023038 0.7173782954651293 0.1980224954360797 0.667948704989248 
0.0455 0.107454 0.0226566 0.7184267041053101 0.16425480008361695 0.6759315286904973 
0.046 0.107424 0.0221481 0.7151641380607094 0.14394237903547408 0.6839743029891477 
0.0465 0.107394 0.0216396 0.7221298959054904 0.11497606628183332 0.6821355566321705 
0.047 0.107364 0.0211311 0.7388852443001552 0.1156053050594018 0.663840349178643 
0.0475 0.107334 0.0206226 0.7605806816451245 0.11646330033192762 0.6387122406718326 
0.048 0.10729 0.0198598 0.8030611164466954 0.09616291577617372 0.5880863345469026 
0.0485 0.10726 0.0193513 0.8236712319041094 0.09432204940614317 0.5591681792890149 
0.049 0.107193 0.0182072 0.9121374080757361 0.07124353022292007 0.40364552294092676 
0.0495 0.107058 0.0159189 0.8889734664978834 0.19438948378579152 0.4146551633058846 
0.05 0.107043 0.0156646 0.8379491569411485 0.24717711530173753 0.48656416231852717 
0.0505 0.107013 0.0151561 0.7321675212062125 0.2827330169653664 0.6196714952363166 
0.051 0.106976 0.0145205 0.7792342936744803 0.25377595492082666 0.5730546922115343 
0.0515 0.106931 0.0137577 0.8211595733250534 0.28192583723798986 0.4962003400182982 
0.052 0.106872 0.0127407 0.8662652169691846 0.2833529319335313 0.4114555745569662 
0.0525 0.106819 0.0118508 0.8830703647595408 0.3030073592838383 0.3582921588638054 
-0.06925 0.110598 0.0693989 0.8674679551935873 -0.4378960090590193 -0.23610682320178644 
-0.06875 0.110641 0.0703566 0.8509057807669912 -0.449890720959009 -0.27121521242788044 
-0.06825 0.110715 0.0720326 0.8394212080784851 -0.4571391442761574 -0.2939316896806448 
-0.06775 0.110763 0.07311 0.8375821698515764 -0.45436050905803227 -0.30333584779127376 
-0.06725 0.110821 0.0744269 0.8309253121434352 -0.44945523710429064 -0.3279529165579422 
-0.06675 0.110864 0.0753846 0.8368747861079471 -0.44256950418109486 -0.32213789957978833 
-0.06625 0.110912 0.076462 0.8441993929484372 -0.4225905413336153 -0.329764490691239 
-0.06575 0.110997 0.0783774 0.8494691990501199 -0.40089931033613435 -0.34304784336468264 
-0.06525 0.111034 0.0792155 0.8454597948439759 -0.39160477736718374 -0.3631025112080344 
-0.06475 0.111082 0.0802929 0.83746418687601 -0.3834378877691504 -0.3893958422007559 
-0.06425 0.111119 0.0811309 0.8402654259362177 -0.3828984331998419 -0.3838525808553759 
-0.06375 0.111172 0.082328 0.8420516045211366 -0.37942161584498535 -0.3833905746793467 
-0.06325 0.11122 0.0834055 0.8324201576723864 -0.374466420811999 -0.4084747002997007 
-0.06275 0.111262 0.0843632 0.8126309931498109 -0.3810056252570055 -0.44098251948900447 
-0.06225 0.111294 0.0850815 0.7894450954095722 -0.38783260739640807 -0.4757754827372624 
-0.06175 0.111331 0.0859195 0.7646142670930302 -0.39164891494973214 -0.5118360577142703 
-0.06125 0.111363 0.0866377 0.7506194396341596 -0.389410576708875 -0.5337882160469278 
-0.06075 0.11139 0.0872363 0.7324529094625886 -0.37769602942833425 -0.5664436819083253 
-0.06025 0.111416 0.0878349 0.7211398767122862 -0.3663124774898976 -0.5880241891713317 
-0.05975 0.111441 0.0885205 0.7127044086074467 -0.3568724884042215 -0.603899373216837 
-0.05925 0.111461 0.0890863 0.7093147598349653 -0.3327593779120075 -0.6214046732137436 
-0.05875 0.111477 0.089539 0.7082156935963784 -0.3268584208689294 -0.625774802984964 
-0.05825 0.111501 0.090218 0.7102620609586858 -0.29193281482607203 -0.6405490117004682 
-0.05775 0.11152 0.0907838 0.699825628161355 -0.28865481284173244 -0.653393058726422 
-0.05725 0.111536 0.0912365 0.6897148792296024 -0.2783865222693317 -0.6684267570856823 
-0.05675 0.111556 0.0918024 -0.6761510544468446 0.2751734202480467 0.6834466624100318 
-0.05625 0.111567 0.0921419 -0.6515399223184846 0.2990755601956077 0.697172531672689 
-0.05575 0.111587 0.0927077 -0.6241520826157624 0.3288117100406924 0.7087432801138379 
-0.05525 0.111603 0.0931604 -0.5935236021313094 0.34873409615212464 0.7253373448913517 
-0.05475 0.111615 0.0934999 -0.5717789644933347 0.37685131915502584 0.7287330780292923 
-0.05425 0.111627 0.0938394 -0.5530558995904594 0.38546030026780687 0.7386132471365782 
-0.05375 0.111638 0.0941789 -0.5460420765427568 0.39468529489662263 0.7389597882410383 
-0.05325 0.111654 0.0946316 -0.5441374498919022 0.3919501600971006 0.741815009031898 
-0.05275 0.111662 0.0948579 -0.5387093610969923 0.4002527430341701 0.7413433522734881 
-0.05225 0.111678 0.0953106 -0.5315730048134145 0.3877773823035183 0.7530330951076908 
-0.05175 0.11169 0.0956501 -0.5149318787531534 0.3804543978968405 0.7681794135257077 
-0.05125 0.111701 0.0959896 -0.5123965052238599 0.37583590766655495 0.772138065337302 
-0.05075 0.111709 0.0962159 -0.5047243401812812 0.3726171627604092 0.7787231795991134 
-0.05025 0.111721 0.0965554 -0.5067939536353894 0.35952890758760697 0.7835169769491104 
-0.04975 0.111733 0.0968949 -0.5068120431512511 0.35831774371084735 0.7840599131819085 
-0.04925 0.111745 0.0972344 -0.512235211548801 0.3653100414174338 0.7772796547505588 
-0.04875 0.111756 0.0975739 -0.5064293898613481 0.3686115143447014 0.7795221770913054 
-0.04825 0.111768 0.0979135 -0.4918339552444918 0.37534916169322113 0.7856286446437372 
-0.04775 0.11178 0.098253 -0.46893047204579164 0.38204730627090205 0.7963316320215208 
-0.04725 0.111792 0.0985925 -0.4400365430138955 0.3883384786484917 0.8096672568489819 
-0.04675 0.1118 0.0988188 -0.40937241578103567 0.39156076441262166 0.8240718372631127 
-0.04625 0.111808 0.0990451 -0.38035994826717645 0.3895772053894401 0.8387823977618657 
-0.04575 0.111812 0.0991583 -0.35362866478192556 0.3974834763516404 0.8467311577306976 
-0.04525 0.111819 0.0993846 -0.3371530514162836 0.40790345093103375 0.8484943103163641 
-0.04475 0.111827 0.099611 -0.34601900787474027 0.41861304164561747 0.8396630083274985 
-0.04425 0.111835 0.0998373 -0.34646567606864914 0.42922800734794236 0.8341012246810388 
-0.04375 0.111839 0.0999505 -0.3245953694388863 0.43150139869969417 0.8416913858767003 
-0.04325 0.111851 0.10029 -0.2932314550885612 0.43197630449851665 0.8528843919890022 
-0.04275 0.111855 0.100403 -0.2564736065798588 0.4345104491311025 0.8633782246059993 
-0.04225 0.111859 0.100516 -0.20838334899336783 0.44213224353357977 0.8724078513460729 
-0.04175 0.111863 0.10063 -0.1720989178870075 0.44449477065072346 0.8790940571555935 
-0.04125 0.111863 0.10063 -0.1683133165330686 0.45223050672445525 0.8758756739774095 
-0.04075 0.111867 0.100743 -0.15012183328106035 0.46450613754167525 0.87275281916385 
-0.04025 0.111871 0.100856 -0.11572473387445104 0.4696747143791559 0.875221942505183 
-0.03975 0.111875 0.100969 -0.06795312039266144 0.47386809881858694 0.8779700441079743 
-0.03925 0.111875 0.100969 -0.012311425581091835 0.4797684160771117 0.8773087801538411 
-0.03875 0.111875 0.100969 0.050895465931482094 0.4836369180555926 0.8737877219561427 
-0.03825 0.111871 0.100856 0.12913985184333213 0.4861713023162984 0.8642686870817179 
-0.03775 0.111871 0.100856 0.1897171903191201 0.4815971538990234 0.85561180979097 
-0.03725 0.111863 0.10063 0.228556833796798 0.47034839114511595 0.8523697347231328 
-0.03675 0.111859 0.100516 0.25781750492565136 0.4548457157900685 0.8524350467814731 
-0.03625 0.111851 0.10029 0.2586316306098627 0.4255019210262833 0.8672126583779933 
-0.03575 0.111847 0.100177 0.22961202795166794 0.41319183775640933 0.881221210497911 
-0.03525 0.111843 0.100064 0.1938473248335045 0.396748888270537 0.8972254645912513 
-0.03475 0.111839 0.0999505 0.14815578032206572 0.38731708419063954 0.9099644724115447 
-0.03425 0.111835 0.0998373 0.12269770453763845 0.3801563323609966 0.9167477495292966 
-0.03375 0.111835 0.0998373 0.09056087298804126 0.3864316746004908 0.917861258115356 
-0.03325 0.111831 0.0997242 0.044253437598940945 0.40098765191527896 0.915013954140672 
-0.03275 0.111835 0.0998373 0.01278289245937967 0.41978567873074907 0.9075332399383155 
-0.03225 0.111831 0.0997242 -0.0040268668132186014 0.44065163109457656 0.8976691619730277 
-0.03175 0.111835 0.0998373 -0.019159078739346674 0.46855691791315274 0.8832255342649387 
-0.03125 0.111835 0.0998373 -0.011559049290163947 0.4932764241741142 0.8697958138169594 
-0.03075 0.111835 0.0998373 -0.006170557489036811 0.5104753639848506 0.8598702384574133 
-0.03025 0.111831 0.0997242 0.020031103327504095 0.525401132145653 0.8506188366357454 
-0.02975 0.111831 0.0997242 0.014264389804840814 0.5373259881366658 0.8432540006762206 
-0.02925 0.111831 0.0997242 0.005699649828772293 0.5561654169310981 0.8310520699701596 
-0.02875 0.111831 0.0997242 -0.007598474478063717 0.5768931721440671 0.8167842622866591 
-0.02825 0.111831 0.0997242 0.002083469314154657 0.6006830466502663 0.7994845443300145 
-0.02775 0.111835 0.0998373 0.00985758558224081 0.6272170338524596 0.7787821392737583 
-0.02725 0.111831 0.0997242 0.0409589240706176 0.6537867595893023 0.7555694802761009 
-0.02675 0.111827 0.099611 0.07737326343773912 0.6746889180480141 0.7340355863091342 
-0.02625 0.111827 0.099611 0.09344871164781031 0.7037810212305281 0.7042440006468492 
-0.02575 0.111823 0.0994978 -0.10697069330919683 -0.7176829351260009 -0.6881049886477193 
-0.02525 0.111823 0.0994978 -0.10139808637568337 -0.7241701446220556 -0.682126109834113 
-0.02475 0.111819 0.0993846 -0.10497231085199037 -0.7314469787616393 -0.6737700878006257 
-0.02425 0.111819 0.0993846 -0.0972896454952034 -0.72819046476035 -0.678434500826368 
-0.02375 0.111819 0.0993846 -0.09317252549590349 -0.724654618957992 -0.6827844196491031 
-0.02325 0.111816 0.0992715 -0.09957025434562555 -0.7069913581685324 -0.7001778230739399 
-0.02275 0.111812 0.0991583 0.10618223241842425 0.6970351954203969 0.7091313488091532 
-0.02225 0.111812 0.0991583 0.1214464503182001 0.6818069813598265 0.7213806206671413 
-0.02175 0.111804 0.098932 0.11192361898634026 0.6725979857336597 0.7314950807080143 
-0.02125 0.111804 0.098932 0.11107214998162666 0.6711149103676586 0.732985507756237 
-0.02075 0.1118 0.0988188 0.09745896932322108 0.6656875885489572 0.7398390255659199 
-0.02025 0.1118 0.0988188 0.06046797890954659 0.6665895554080934 0.7429683628173106 
-0.01975 0.111796 0.0987056 0.03293570524777379 0.6657319398611388 0.7454637640882062 
-0.01925 0.111796 0.0987056 0.016897358866896004 0.658208539010932 0.7526459980870274 
-0.01875 0.1118 0.0988188 0.03319099517048794 0.649327979025191 0.7597838728840286 
-0.01825 0.1118 0.0988188 0.05268110259401673 0.6340613318096849 0.7714861819457346 
-0.01775 0.111796 0.0987056 0.07774677739666365 0.5936415703822221 0.800965120662918 
-0.01725 0.111796 0.0987056 0.1142633157539648 0.5632645981584261 0.818337880789064 
-0.01675 0.111792 0.0985925 0.1268875047370844 0.5409731796801557 0.8314130020683694 
-0.01625 0.111792 0.0985925 0.11924216986382051 0.5105617413656088 0.8515327434572818 
-0.01575 0.111784 0.0983661 0.1075262319563611 0.4916023435903854 0.8641557991575983 
-0.01525 0.11178 0.098253 0.09794190472831427 0.4835295435934451 0.8698313421408225 
-0.01475 0.111784 0.0983661 0.1220243050705979 0.4765669799469512 0.8706284986125138 
-0.01425 0.11178 0.098253 0.17866791384193764 0.4708084621200386 0.863954378748979 
-0.01375 0.111776 0.0981398 0.26168919432244875 0.4638801466207844 0.8463651547328418 
-0.01325 0.111772 0.0980266 0.33714431064578004 0.453161816182878 0.825213961438497 
-0.01275 0.111764 0.0978003 0.3663814416575173 0.455233861629097 0.8114966237977946 
-0.01225 0.111753 0.0974608 0.3662105467858522 0.4595639863257363 0.8091296422052561 
-0.01175 0.111745 0.0972344 0.3264359318638615 0.4753281366685596 0.8170084117555751 
-0.01125 0.111741 0.0971213 0.25824523312195047 0.4998751642919331 0.8267008042175249 
-0.01075 0.111737 0.0970081 0.20753825419348157 0.5207762080027941 0.8280821301202873 
-0.01025 0.111733 0.0968949 0.16605934564235833 0.5313422487651378 0.8307224015289575 
-0.00975 0.111733 0.0968949 0.16823551262041872 0.5391573876558735 0.8252309516913668 
-0.00925 0.111725 0.0966686 0.1717580252692197 0.5464514298495134 0.8196889748990408 
-0.00875 0.111721 0.0965554 0.191750666269231 0.5402650939668243 0.8193566440972603 
-0.00825 0.111717 0.0964423 0.2156069903606562 0.5305234923698738 0.8197917111994316 
-0.00775 0.111713 0.0963291 0.22546914818451397 0.5164726143340179 0.826086982018198 
-0.00725 0.111709 0.0962159 0.2707715251847582 0.5071230160795128 0.8182353131658019 
-0.00675 0.111701 0.0959896 0.3217744086809009 0.49647539750822517 0.8062092839871706 
-0.00625 0.111697 0.0958764 0.37851890890182216 0.49090864128949246 0.7846860146014318 
-0.00575 0.111686 0.0955369 0.43536712482401585 0.48491384300865503 0.7584945823676312 
-0.00525 0.111674 0.0951974 0.4586336178045656 0.5022058761322172 0.7331060377583639 
-0.00475 0.111662 0.0948579 0.47324827989144613 0.5378837789743596 0.6976511348059642 
-0.00425 0.111646 0.0944052 0.4413385736991356 0.5724633873070553 0.691018041412918 
-0.00375 0.111638 0.0941789 0.3936872474660937 0.5879563971515049 0.7066241053284218 
-0.00325 0.11163 0.0939525 0.3304038075487458 0.6011747101044471 0.727614109187092 
-0.00275 0.111623 0.0937262 0.28326845239327975 0.5986369616414788 0.7492614844200753 
-0.00225 0.111619 0.0936131 0.2727444359794158 0.6000041414760623 0.7520674855715036 
-0.00175 0.111615 0.0934999 0.2725086228311262 0.6054194624307322 0.7478009929070477 
-0.00125 0.111607 0.0932735 0.26360537492323827 0.6120668225361725 0.745577904086523 
-0.00075 0.111599 0.0930472 0.271663792441803 0.6272363456551122 0.7299132486572344 
-0.00025 0.111595 0.092934 0.2721912063437865 0.6338246768589972 0.7240015374249574 
0.00025 0.111591 0.0928209 0.2878207628911669 0.6553274624048392 0.6983588801374124 
0.00075 0.111583 0.0925945 0.3012278410087702 0.6598639977614875 0.6883613093858651 
0.00125 0.111575 0.0923682 -0.32673985425523966 -0.677124926209744 -0.6593503635751734 
0.00175 0.111564 0.0920287 -0.3547597956616005 -0.6936692559067376 -0.6268719572543763 
0.00225 0.111556 0.0918024 -0.36933727701594204 -0.6966594666915492 -0.6150248476895023 
0.00275 0.111544 0.0914628 -0.38423706007912456 -0.697096068105076 -0.6053254938412843 
0.00325 0.111532 0.0911233 -0.4117634426855397 -0.6993805147491916 -0.5842240690496311 
0.00375 0.111524 0.090897 -0.4362183103896636 -0.6961210918020009 -0.570200851655956 
0.00425 0.111512 0.0905575 -0.4532488300858256 -0.6841486258597362 -0.5714071716036343 
0.00475 0.111489 0.0898785 -0.4573742827973415 -0.7071424899471621 -0.5392200518776588 
0.00525 0.111477 0.089539 -0.4668901517258635 -0.7164671420577349 -0.5183516379573055 
0.00575 0.111465 0.0891995 -0.48263604647328623 -0.7305072160400214 -0.483137303422219 
0.00625 0.111453 0.08886 -0.4762601569475374 -0.7448610776217877 -0.4672881744153346 
0.00675 0.111416 0.0878349 -0.46425589591851213 -0.7767370457508286 -0.42561252902513896 
0.00725 0.111401 0.0874757 -0.4651819943499623 -0.7957365529925408 -0.3878260568401007 
0.00775 0.111385 0.0871166 -0.46189258517452136 -0.8124373554565046 -0.3558100381097177 
0.00825 0.111358 0.086518 -0.46446798145120277 -0.827059592388534 -0.3166100517114976 
0.00875 0.111289 0.0849617 -0.4638044249660307 -0.8561767452575781 -0.22769900364751164 
0.00925 0.111236 0.0837646 -0.4694636347400182 -0.8559631443898346 -0.2166356182693833 
0.00975 0.111209 0.083166 0.5012874343963025 0.8472446561431717 0.1757481173532479 
0.01025 0.110646 0.0704763 -0.5658019272327577 -0.5826072960115198 -0.5834697230995303 
0.01075 0.110625 0.0699974 -0.5571287447946949 -0.567866770217145 -0.6059165726456373 
0.01125 0.110614 0.069758 0.5536139943678684 0.4963904201977472 0.6686614210315693 
0.01175 0.110593 0.0692792 0.5446268264591971 0.47643569169807903 0.6902105849500981 
0.01225 0.110577 0.06892 0.5571957226544414 0.4614300318952962 0.6903732702826064 
0.01275 0.110566 0.0686806 0.5733544218913286 0.4381883503887437 0.6922829453924544 
0.01325 0.110545 0.0682017 0.5998535073470708 0.44739946026485916 0.6633321134078544 
0.01375 0.110513 0.0674834 0.6269069541970133 0.48488313067814615 0.6098163824981939 
0.01425 0.110503 0.067244 0.6423312126995857 0.4706489199589247 0.6048968567726046 
0.01475 0.110471 0.0665257 0.6355527766285747 0.4858953041546897 0.5999820176639717 
0.01525 0.110449 0.0660469 0.6491229304506643 0.4929053320350373 0.579382218241613 
0.01575 0.110428 0.065568 0.6904564078359283 0.4848718330944136 0.5368139848681005 
0.01625 0.110407 0.0650891 0.7084259325794255 0.483906662935791 0.5137772276145744 
0.01675 0.11037 0.0642511 0.7300800339304027 0.4867894620660124 0.47960313143021105 
0.01725 0.110333 0.0634131 0.732847962017681 0.5097321664494343 0.4506739209820086 
0.01775 0.110306 0.0628146 0.7353245313664304 0.5201376622503134 0.4344590266981664 
0.01825 0.110253 0.0616174 0.7608312201709269 0.5104130579125521 0.40076722012357363 
0.01875 0.110078 0.0576668 -0.11558062857520693 -0.6232445195665783 -0.773438677031596 
0.01925 0.110083 0.0577866 0.15415023788155255 0.616268885387681 0.7723019908456059 
0.01975 0.110088 0.0579063 -0.24775505495897449 -0.6110477847090178 -0.7518231424640226 
0.02025 0.110088 0.0579063 0.33925719316339376 0.5912384221955974 0.7316704756969193 
0.02075 0.110072 0.0575471 0.4086607316224067 0.5766148490601185 0.707468530941989 
0.02125 0.110056 0.057188 0.48404568049255814 0.5544961737380031 0.6769296658489793 
0.02175 0.11003 0.0565894 0.6179716033815518 0.531295779966463 0.5795134956184037 
0.02225 0.110014 0.0562303 0.636729024523734 0.531893928911925 0.558269646063343 
0.02275 0.109982 0.055512 0.6488388329334859 0.5643721433094333 0.5103844166251833 
0.02325 0.109939 0.0545543 0.639333925999141 0.604129479041209 0.47568866248831543 
0.02375 0.109918 0.0540754 0.6311247712214593 0.6220996321668227 0.4633287934162572 
0.02425 0.109881 0.0532374 -0.6272678435440465 -0.6463523744135461 -0.43446940116143123 
0.02475 0.109854 0.0526388 -0.6412565684736367 -0.6448794778560369 -0.4158370743807498 
0.02525 0.109823 0.0519206 -0.6409363969526928 -0.684398699880479 -0.34756144012708023 
0.02575 0.109785 0.0510826 -0.6612550310641176 -0.7027160758846727 -0.2625488537122942 
0.02625 0.109658 0.0482094 -0.5853776077642341 -0.6914598416006505 -0.42333951360796185 
0.02675 0.10965 0.0480823 -0.5623237449731742 -0.6927512537094505 -0.45153926332416433 
0.02725 0.109621 0.0475738 -0.522077984260871 -0.679197908591926 -0.5158728325027976 
0.02775 0.109599 0.0471924 -0.5129638915280725 -0.6643196638379295 -0.5436427413537644 
0.02825 0.109569 0.046684 -0.5019298187784382 -0.6627381716051693 -0.5557378634918455 
0.02875 0.109547 0.0463026 -0.4721148646415117 -0.7114412929574706 -0.520537070014739 
0.02925 0.109532 0.0460484 -0.4674908669691132 -0.7223484202105782 -0.5095733991484924 
0.02975 0.10951 0.045667 -0.4468402334610309 -0.7456795348984397 -0.49426292294095636 
0.03025 0.109481 0.0451585 -0.4671307346131631 -0.7466694306473184 -0.47357537743908923 
0.03075 0.109458 0.0447771 -0.48195254618385686 -0.7452959943023514 -0.4607120837396895 
0.03125 0.109436 0.0443958 -0.5191458220320035 -0.7254764125822704 -0.4518535053017457 
0.03175 0.109399 0.0437602 -0.567003212271469 -0.6992698598023968 -0.4353493085394439 
0.03225 0.109377 0.0433788 -0.5947337551796041 -0.6883103092187939 -0.4153560865969044 
0.03275 0.109325 0.042489 -0.6442033360639219 -0.6684344556435698 -0.37174916316327905 
0.03325 0.109266 0.041472 0.671906365824817 0.6643277189893517 0.32743017171069044 
0.03375 0.109207 0.040455 0.6969085948515741 0.65296973422902 0.29656185965644233 
0.03425 0.109141 0.0393109 0.7124356186764633 0.6469465530287779 0.27183753744703393 
0.03475 0.109082 0.038294 0.7253964912863876 0.6434327817464122 0.2445284969149232 
0.03525 0.108661 0.0310481 -0.4957762421537962 -0.4202017572760044 -0.7600239475819289 
0.03575 0.108639 0.0306667 0.5552438918457854 0.3977692568362185 0.730399780177889 
0.03625 0.108624 0.0304125 0.5811980252821856 0.3843157500444986 0.7172937053089363 
0.03675 0.108594 0.029904 0.613634603534668 0.34887207778234625 0.7083366760860823 
0.03725 0.108565 0.0293955 0.6195726886712114 0.3307046384234004 0.711873672485487 
0.03775 0.108535 0.028887 0.6161759927733439 0.3093787945379047 0.7243009784751482 
0.03825 0.108513 0.0285056 0.5758521475895143 0.28905101673269035 0.7647508181377398 
0.03875 0.108498 0.0282514 0.5494092946480984 0.28109850988459356 0.7868500840026265 
0.03925 0.108476 0.02787 0.5183085566814353 0.27906331003403756 0.8083810419991638 
0.03975 0.108469 0.0277429 0.5206287401441383 0.27884081891571566 0.8069656204835125 
0.04025 0.108439 0.0272344 0.5453305373850708 0.29847632794293144 0.7832793158593003 
0.04075 0.108432 0.0271073 0.5709844335023995 0.30794570420645684 0.761016570094721 
0.04125 0.108402 0.0265988 0.5783232808091054 0.32592817632750753 0.7478723198180406 
0.04175 0.108373 0.0260903 0.5983782026618966 0.33001374952676676 0.7300920843992232 
0.04225 0.108351 0.025709 0.6420825778239734 0.32807154341180683 0.6928917849551373 
0.04275 0.108329 0.0253276 0.6663092816952773 0.3205526223466428 0.6732592052348149 
0.04325 0.108299 0.0248191 0.6813597484814528 0.3147986461530068 0.660795509616648 
0.04375 0.108262 0.0241835 0.6970216355551571 0.2683596943608907 0.6649390302956678 
0.04425 0.10824 0.0238022 0.6936459434544108 0.23278014469075614 0.6816661274898371 
0.04475 0.108203 0.0231666 0.6937535553498367 0.184208435853914 0.6962566025537679 
0.04525 0.108181 0.0227852 0.6995778613205399 0.16248047855775785 0.6958382786523186 
0.04575 0.108151 0.0222767 0.7042967561608601 0.1400948603110781 0.695945047669505 
0.04625 0.108122 0.0217682 0.7096033565307283 0.12919006831814595 0.6926564824270953 
0.04675 0.108092 0.0212597 0.7367064540776009 0.1260221859351862 0.6643658699636255 
0.04725 0.108063 0.0207513 0.7491610187857395 0.13276824492991024 0.6489455763545539 
0.04775 0.108026 0.0201157 0.7770472648393814 0.14068743059910968 0.6135182108764636 
0.04825 0.107989 0.01948 0.8163878287086862 0.12313872773771616 0.5642231534308509 
0.04875 0.107945 0.0187173 0.8389079817092225 0.13202641991586725 0.5280174454208476 
0.04925 0.107893 0.0178275 0.9184784871590023 0.11586874883701655 0.3781159897029678 
0.04975 0.10776 0.0155393 0.8703123973025808 0.27119277204559195 0.411109245203343 
0.05025 0.10773 0.0150308 0.7342463535000584 0.35639716199311233 0.5778090993529975 
0.05075 0.107694 0.0143952 0.7554551934775336 0.382663299781106 0.5318423165266728 
0.05125 0.107649 0.0136325 0.7930767438570668 0.38089313296756716 0.4753416661846754 
0.05175 0.107583 0.0124884 0.8418485179041706 0.3879252237424536 0.37524004808511396 
-0.069 0.111262 0.0688003 0.8542319831286525 -0.4663636441805352 -0.2297665562842874 
-0.0685 0.111309 0.0698777 0.8428286987684597 -0.4792299706901951 -0.24490491976385415 
-0.068 0.111388 0.0716734 0.8316647261496074 -0.4741867720999741 -0.2889302484059186 
-0.0675 0.111435 0.0727508 0.83478164001109 -0.46693822052257267 -0.29173328866553494 
-0.067 0.111498 0.0741873 0.8295745459322722 -0.45720699375541524 -0.32057423103300137 
-0.0665 0.111555 0.0755041 0.841236673891818 -0.4401245006158657 -0.3140243341797989 
-0.066 0.111587 0.0762224 0.8436955325399217 -0.4336451396861936 -0.31643283836972347 
-0.0655 0.11166 0.0778984 0.846185617828827 -0.4172270364797616 -0.3314988690930363 
-0.065 0.111707 0.0789758 0.8417333869681956 -0.41478243841875345 -0.345601553877356 
-0.0645 0.111759 0.0801729 0.8306516616074207 -0.40993620510931716 -0.37678923128110114 
-0.064 0.111806 0.0812503 0.8362769958939552 -0.3969284797718095 -0.3782704959213999 
-0.0635 0.111854 0.0823277 0.8392442970659124 -0.3929273760963907 -0.3758684436825574 
-0.063 0.11189 0.0831657 0.8287934379980553 -0.3897006151924306 -0.4015406176839461 
-0.0625 0.111937 0.0842431 0.7982747587014805 -0.3990401959196359 -0.45113671061055516 
-0.062 0.111969 0.0849614 0.7840740971207942 -0.4013343488298848 -0.47345385273910673 
-0.0615 0.112 0.0856797 0.758202968744915 -0.40727259896530826 -0.5091731417881745 
-0.061 0.112037 0.0865177 0.7492001259154188 -0.4046686407004252 -0.5243495614206146 
-0.0605 0.112068 0.0872359 0.7316202850499561 -0.39620518646373304 -0.5547550889560721 
-0.06 0.112094 0.0878345 0.7181449525170107 -0.38435332084234136 -0.5801209804271906 
-0.0595 0.112115 0.0884069 0.7143883101152123 -0.3791799405271859 -0.5881087612614958 
-0.059 0.112134 0.0889728 0.7130005151798885 -0.367197797187765 -0.5973240687379562 
-0.0585 0.112154 0.0895387 0.7082235397043614 -0.35569776796725083 -0.6098348265487473 
-0.058 0.112173 0.0901045 0.7055038165550337 -0.3389814875252541 -0.622379238038551 
-0.0575 0.112192 0.0906704 0.6930384593042122 -0.3298912857165003 -0.6409909777317915 
-0.057 0.112211 0.0912363 0.6685314656757729 -0.3327247538939761 -0.6651014340291229 
-0.0565 0.112227 0.091689 -0.6406697524236334 0.3525118531273863 0.6821126459274424 
-0.056 0.112242 0.0921417 -0.6108897759036237 0.3778939831792843 0.6957081422358915 
-0.0555 0.112257 0.0925944 -0.5848147057767513 0.39629058444239734 0.7077750579029718 
-0.055 0.112269 0.0929339 -0.5614020918581555 0.40999983674831575 0.7188378295023444 
-0.0545 0.112284 0.0933866 -0.5407573117335721 0.4280193133970659 0.7241415587892915 
-0.054 0.112296 0.0937261 -0.5425242627492688 0.42814064922221706 0.7227468497419695 
-0.0535 0.112304 0.0939525 -0.5425448024000552 0.4207574922769812 0.7270545165814399 
-0.053 0.112319 0.0944052 -0.5410332894799215 0.41928301456728084 0.7290299948355412 
-0.0525 0.112331 0.0947447 -0.5429154944262485 0.4097158939327978 0.7330591055097471 
-0.052 0.112342 0.0950842 -0.5359768758400857 0.3990120694635839 0.7439880086312477 
-0.0515 0.112354 0.0954237 -0.5219369649463722 0.39281928596198346 0.7571491353748526 
-0.051 0.112369 0.0958764 -0.5132084658413693 0.37916732468055914 0.7699670190880487 
-0.0505 0.112377 0.0961028 -0.511474925175694 0.3772367830125053 0.7720659366005563 
-0.05 0.112388 0.0964423 -0.5095668250481905 0.376567328760412 0.7736528276433523 
-0.0495 0.1124 0.0967818 -0.496882966013878 0.37913693541665205 0.7806167448166359 
-0.049 0.112411 0.0971214 -0.4863770991603005 0.3991150574698622 0.7772673210120441 
-0.0485 0.112423 0.0974609 -0.4770810937967075 0.414080415787969 0.775197419502026 
-0.048 0.112431 0.0976872 -0.4687862748686791 0.43316696537510746 0.7698089429218575 
-0.0475 0.112442 0.0980267 -0.43980329115965316 0.4455827591989994 0.7797621879712711 
-0.047 0.112454 0.0983663 -0.4169952363972626 0.4476254217882473 0.791041373501339 
-0.0465 0.112462 0.0985926 -0.3941105739054628 0.44614876351089117 0.803509885660164 
-0.046 0.112469 0.098819 -0.35697646590825877 0.4538785722678231 0.8164325106362267 
-0.0455 0.112477 0.0990453 -0.3343604584745544 0.44504676485370215 0.8307445220414873 
-0.045 0.112481 0.0991585 -0.325734070625422 0.4388412071501109 0.837445944608263 
-0.0445 0.112485 0.0992717 -0.32596930294141313 0.4475684574780985 0.8327223363225972 
-0.044 0.112492 0.099498 -0.32273699767935693 0.4560762417906959 0.8293583616284275 
-0.0435 0.1125 0.0997244 -0.30769965364876134 0.4679055448327642 0.8284837501479353 
-0.043 0.112508 0.0999507 -0.26901643190938257 0.4803407968105555 0.834807090459913 
-0.0425 0.112512 0.100064 -0.22085099039019895 0.4849897955615166 0.8461735863549904 
-0.042 0.112515 0.100177 -0.1832508716582189 0.49028499285864013 0.8520796581389009 
-0.0415 0.112519 0.10029 -0.15135256769177136 0.49993451409024914 0.8527355286807594 
-0.041 0.112523 0.100403 -0.1386850741427619 0.5141426152986447 0.8464182307487751 
-0.0405 0.112523 0.100403 -0.12246487738132121 0.5222501792373822 0.843953259425248 
-0.04 0.112527 0.100517 -0.07867886389237319 0.5318728201073066 0.8431612773412369 
-0.0395 0.112531 0.10063 -0.041721824187840574 0.5337534679145505 0.8446102798780215 
-0.039 0.112531 0.10063 0.019277805020084176 0.5375921131025636 0.8429846298501107 
-0.0385 0.112527 0.100517 0.08363475857666995 0.534787893248119 0.8408371640175406 
-0.038 0.112527 0.100517 0.14885230218326215 0.5251949575884343 0.8378623088899665 
-0.0375 0.112523 0.100403 0.1847966714668083 0.5143373413554004 0.8374409170217603 
-0.037 0.112515 0.100177 0.2072260754366846 0.4850813031919554 0.849560758835237 
-0.0365 0.112512 0.100064 0.21948269279133958 0.45473345270226645 0.8631597966532837 
-0.036 0.112508 0.0999507 0.20294638943422577 0.4209449226549922 0.884091700620809 
-0.0355 0.112504 0.0998375 0.1792467047808519 0.40014891840038647 0.8987499440490702 
-0.035 0.1125 0.0997244 0.1501010740310873 0.38367653698261783 0.9111871281705749 
-0.0345 0.112496 0.0996112 0.14132563534275863 0.37409513313975823 0.9165587248813424 
-0.034 0.112496 0.0996112 0.11350960166292275 0.383195725547547 0.916666027652609 
-0.0335 0.112492 0.099498 0.09106992649884635 0.39211618479693705 0.9153967260744321 
-0.033 0.112492 0.099498 0.05416671668585087 0.4114744911293317 0.9098102604133084 
-0.0325 0.112492 0.099498 0.035349059707164406 0.4281276491786968 0.9030266662654775 
-0.032 0.112492 0.099498 0.02302555081756334 0.44413786024155366 0.8956625397489849 
-0.0315 0.112492 0.099498 0.008332070246099088 0.46020481461435797 0.8877736790484264 
-0.031 0.112492 0.099498 0.028493455733996767 0.475389097896236 0.8793141239521505 
-0.0305 0.112489 0.0993849 0.04303109904134607 0.48282972104165267 0.8746563810972476 
-0.03 0.112489 0.0993849 0.033511159334666 0.4915765362633712 0.8701893536439947 
-0.0295 0.112489 0.0993849 0.024326633511905643 0.5001071029187307 0.8656217999289364 
-0.029 0.112485 0.0992717 0.022313141293229134 0.49793284366212226 0.8669284900891083 
-0.0285 0.112489 0.0993849 0.040389065908111026 0.5121622050312616 0.8579385753610722 
-0.028 0.112485 0.0992717 0.0632661887609385 0.5297253160280111 0.8458064074708167 
-0.0275 0.112485 0.0992717 0.09550803120998176 0.5565631558003747 0.8252973219270259 
-0.027 0.112481 0.0991585 0.138955353158667 0.5820466619880948 0.8011947909822347 
-0.0265 0.112477 0.0990453 0.16373024752723023 0.6163326250505405 0.7702768991362663 
-0.026 0.112473 0.0989322 0.18037913473681166 0.6245865447708251 0.7598388091186454 
-0.0255 0.112465 0.0987058 0.17418102061420251 0.6292669451716855 0.7574193579332983 
-0.025 0.112462 0.0985926 0.1506248769791911 0.659984591766553 0.7360247856327531 
-0.0245 0.112462 0.0985926 0.11948573253379574 0.684480417791767 0.7191729398277373 
-0.024 0.112462 0.0985926 -0.08124578269828203 -0.7110363023134446 -0.6984457742632333 
-0.0235 0.112462 0.0985926 -0.07149652225098843 -0.7057158978421347 -0.7048782297949651 
-0.023 0.112462 0.0985926 -0.0717951845203271 -0.7059932846627106 -0.7045700344826262 
-0.0225 0.112458 0.0984794 0.08620670982033792 0.6948627026287585 0.7139567407605377 
-0.022 0.112458 0.0984794 0.10229390341969859 0.6866817976440402 0.7197249933881071 
-0.0215 0.112454 0.0983663 0.10259803767857108 0.6821286895115066 0.7239986834309998 
-0.021 0.11245 0.0982531 0.09628074663157586 0.6786062131232442 0.7281645592437168 
-0.0205 0.112446 0.0981399 0.07975015829208817 0.6788310075189888 0.7299509404632213 
-0.02 0.11245 0.0982531 0.056590436399996134 0.6834235630723082 0.727825360883783 
-0.0195 0.112446 0.0981399 0.014449435240261547 0.6881708825430292 0.7254047492546392 
-0.019 0.112446 0.0981399 -0.0010431341554358149 0.6893942599877065 0.724385578381525 
-0.0185 0.112446 0.0981399 -0.0030970519376047768 0.6799165018460792 0.7332830004757278 
-0.018 0.11245 0.0982531 0.008088685677427503 0.6600772041099597 0.7511542170409419 
-0.0175 0.11245 0.0982531 0.03092907728932509 0.6430639858633754 0.7651876255295427 
-0.017 0.112446 0.0981399 0.05407110219321502 0.6179880519930107 0.7843258783831468 
-0.0165 0.112446 0.0981399 0.08867680101374284 0.5754549827654761 0.8130116775129091 
-0.016 0.112446 0.0981399 0.09065523827877685 0.5645529613821435 0.8204033042152318 
-0.0155 0.112442 0.0980267 0.08506752568903184 0.5563843229870322 0.8265591335212549 
-0.015 0.112442 0.0980267 0.10257094529611742 0.5471796636080092 0.8307066972854419 
-0.0145 0.112438 0.0979136 0.13933374446844524 0.5524606863685243 0.8218109865836676 
-0.014 0.112438 0.0979136 0.20007662483805047 0.5386380448525985 0.8184365588307893 
-0.0135 0.112431 0.0976872 0.292247665389351 0.5396257921273722 0.789553865512278 
-0.013 0.112427 0.0975741 0.3398485578953657 0.530815308700863 0.7763620712948618 
-0.0125 0.112415 0.0972345 0.36648114687306194 0.5285876675998609 0.7656935722911251 
-0.012 0.112404 0.096895 0.3494417189730146 0.5444128605273362 0.7625648315609813 
-0.0115 0.112396 0.0966687 0.31080578330136377 0.5644012048178774 0.7647555459534466 
-0.011 0.112392 0.0965555 0.24269418956592737 0.5837132028135433 0.7748409044520642 
-0.0105 0.112388 0.0964423 0.18494529833831472 0.5999893374372279 0.7783367083622537 
-0.01 0.112385 0.0963291 0.173539068437884 0.6099323505043922 0.7732184164477063 
-0.0095 0.112381 0.096216 0.16417577452356488 0.6144580057276801 0.7716784785496806 
-0.009 0.112381 0.096216 0.16434784662246463 0.6119673713964284 0.773618589265217 
-0.0085 0.112373 0.0959896 0.178464310195544 0.6102796534572766 0.7718220225949081 
-0.008 0.112373 0.0959896 0.19275528006047823 0.5945829630505278 0.7805872802312764 
-0.0075 0.112369 0.0958764 0.23061178721155723 0.5880539031259048 0.7752488701168678 
-0.007 0.112361 0.0956501 0.27905715023937394 0.5758339334611434 0.7684675581798797 
-0.0065 0.112358 0.0955369 0.3510590092416877 0.5615248631660869 0.7492979381237828 
-0.006 0.112346 0.0951974 0.42118260047451594 0.5520868550836763 0.7195869103182325 
-0.0055 0.112334 0.0948579 0.466233284810918 0.5665648074784158 0.6794342080447284 
-0.005 0.112323 0.0945183 0.48770909189189227 0.5734740698836894 0.6582304557349372 
-0.0045 0.112304 0.0939525 0.4651595523710764 0.5956581561250827 0.6548419289260626 
-0.004 0.112292 0.0936129 0.3825928299713134 0.6166197314358883 0.6880427554000367 
-0.0035 0.112288 0.0934998 0.3441501422299012 0.6297747304458639 0.6963795434208117 
-0.003 0.112284 0.0933866 0.2836450951920664 0.6380273498729723 0.7158676978238057 
-0.0025 0.112281 0.0932734 0.27059466192148934 0.640500197428581 0.7187057993598938 
-0.002 0.112273 0.0930471 0.2673141923990989 0.6489436992715534 0.7123308204182726 
-0.0015 0.112265 0.0928207 0.27317802309307393 0.657979358912422 0.7017385061004977 
-0.001 0.112257 0.0925944 0.2856455031005527 0.6755968659552731 0.6796878116237225 
-0.0005 0.11225 0.092368 -0.29595150973486944 -0.6834492316118608 -0.6673154064569532 
0.0 0.112242 0.0921417 -0.30493789673928917 -0.6914653897451791 -0.6548957885929381 
0.0005 0.112234 0.0919153 -0.3185988903428373 -0.7035584097626889 -0.6352167434226755 
0.001 0.112227 0.091689 -0.33702199042301884 -0.7121873641179706 -0.6157965056428981 
0.0015 0.112219 0.0914626 -0.35627359669069925 -0.7216500035248414 -0.5935405602936242 
0.002 0.112211 0.0912363 -0.35682074129810226 -0.736792279660018 -0.5742961737752279 
0.0025 0.112196 0.0907836 -0.3656631272838109 -0.7470917657704353 -0.5551075309010286 
0.003 0.112184 0.0904441 -0.387472568353187 -0.7456661964591682 -0.5420765003501832 
0.0035 0.112177 0.0902177 -0.40845369416138405 -0.7435725673076449 -0.529400998179486 
0.004 0.112161 0.089765 -0.4278457331711299 -0.7410233206490351 -0.5175253296811044 
0.0045 0.112142 0.0891991 -0.4406717232564189 -0.7554562923962171 -0.4848651591949861 
0.005 0.112134 0.0889728 -0.46943093240109796 -0.7515343054969594 -0.4634984221831168 
0.0055 0.112111 0.0882937 -0.48059589927799795 -0.7588688088558871 -0.43948346105720437 
0.006 0.1121 0.0879542 0.4782725504059124 0.7698783102616706 0.42254319887658665 
0.0065 0.112058 0.0869965 -0.4799619908125608 -0.8175546388366282 -0.31818375177238933 
0.007 0.112042 0.0866374 -0.47530243190982313 -0.8266675126581892 -0.30117838856088336 
0.0075 0.112005 0.0857994 -0.4669479748436333 -0.8471295922455392 -0.25363564956712226 
0.008 0.111937 0.0842431 0.4664182513956838 0.8535186137219453 0.23229289871875577 
0.0085 0.111377 0.071434 -0.5537232484135964 -0.5921244280422602 -0.5854735057045034 
0.009 0.111367 0.0711945 -0.5485072470685469 -0.5969597289568211 -0.5854732119551521 
0.0095 0.111351 0.0708354 -0.5561786221490246 -0.6076829931963318 -0.5669097988607713 
0.01 0.11133 0.0703565 -0.5571933790818215 -0.6018736434573787 -0.5720871049225998 
0.0105 0.111304 0.069758 -0.5502203907438926 -0.6007053238130201 -0.5800091685071301 
0.011 0.111283 0.0692791 0.5285919432704381 0.5869870075574215 0.6132184035630089 
0.0115 0.111267 0.06892 0.4970542493183531 0.5988426605075116 0.6279526583993841 
0.012 0.111252 0.0685609 0.5039290895041034 0.5817126083981472 0.6384872073755192 
0.0125 0.111241 0.0683214 0.5329465660325495 0.5590718720531399 0.635142975740983 
0.013 0.111225 0.0679623 0.5689443094353362 0.5418876807292148 0.6185952749860452 
0.0135 0.111199 0.0673637 0.6103310854044693 0.5369082825462484 0.5824306502256215 
0.014 0.111173 0.0667652 0.6211581299915779 0.5386678586276876 0.5692095533516873 
0.0145 0.111142 0.0660469 0.6228706014095609 0.5592778438407878 0.5470287993227517 
0.015 0.111126 0.0656878 0.6258467186123806 0.5707880533541656 0.531523172543096 
0.0155 0.11111 0.0653286 0.6534630053323578 0.5608433008064032 0.5083708219425865 
0.016 0.111074 0.0644907 0.6734723777391416 0.5547159037683483 0.4885951519702702 
0.0165 0.111042 0.0637724 0.6881818683154647 0.5638679845167905 0.45657268003989093 
0.017 0.111005 0.0629344 0.7118011575625208 0.5688638516292188 0.4119866871662547 
0.0175 0.110969 0.0620964 0.7277510491545529 0.5465393941034035 0.41433452806582804 
0.018 0.110744 0.0569488 0.17764770058130003 0.6273262473044402 0.7582236305478119 
0.0185 0.110754 0.0571882 0.14294468399876423 0.6342792478517105 0.7597740802772637 
0.019 0.110759 0.0573079 0.1537462559458814 0.6759975389573012 0.7206867669843093 
0.0195 0.110759 0.0573079 0.18334389261570827 0.6780455770517182 0.7117859316403509 
0.02 0.110759 0.0573079 0.234243531986918 0.6705142594917222 0.7039464436592896 
0.0205 0.110754 0.0571882 0.3493000011797301 0.6615772266851812 0.6635548826641131 
0.021 0.110733 0.0567094 -0.4653467168575745 -0.6558499592413524 -0.5944016016743164 
0.0215 0.110712 0.0562305 -0.5675615469542218 -0.6319319720255013 -0.5277649790871802 
0.022 0.110691 0.0557517 -0.6094656103144664 -0.6318126142904 -0.4789201293196446 
0.0225 0.110644 0.0546743 -0.6105506915543509 -0.6554925551576831 -0.44447425479475816 
0.023 0.110623 0.0541954 -0.6217307866937143 -0.6455126950743509 -0.44358109672873014 
0.0235 0.110592 0.0534771 -0.6297625925000027 -0.6449438518423091 -0.4329509268479296 
0.024 0.110555 0.0526391 -0.6293260424836018 -0.6627124650571681 -0.4059075275352501 
0.0245 0.110529 0.0520406 -0.6382877893701475 -0.6884153759995378 -0.344489430938578 
0.025 0.110492 0.0512026 -0.6569983687267402 -0.6985880433867566 -0.2834217513308834 
0.0255 0.110372 0.0484492 -0.63502353365629 -0.6707783707820779 -0.38314682432929026 
0.026 0.11034 0.0478285 -0.581520552268178 -0.5883572856308605 -0.5618447754805586 
0.0265 0.110332 0.0477014 0.5572203892119801 0.5815520586421754 0.5927078883695551 
0.027 0.11031 0.04732 0.5588569287783548 0.565574969928148 0.6064683722562946 
0.0275 0.110281 0.0468115 0.5627596873038319 0.5174597424037369 0.6446215551291715 
0.028 0.110252 0.0463031 0.5747002420472425 0.5604444751090334 0.5963401899172998 
0.0285 0.110223 0.0457946 -0.5562446416204181 -0.6138813457298179 -0.5601264071917341 
0.029 0.110201 0.0454133 -0.5411860731821189 -0.6322779803931863 -0.5543845143072019 
0.0295 0.110179 0.0450319 -0.5117028241892901 -0.6754231745063856 -0.5310025942087488 
0.03 0.110157 0.0446506 -0.528298666102748 -0.6796934275764592 -0.5088392318831378 
0.0305 0.110128 0.0441421 -0.5293210397000863 -0.6962025494355956 -0.48489302644005583 
0.031 0.110113 0.0438879 -0.5324646057536958 -0.6981863611288506 -0.4785574665107793 
0.0315 0.110077 0.0432523 -0.5619005861537003 -0.6934999221910674 -0.4509163882596324 
0.032 0.11004 0.0426167 -0.6049810004371783 -0.6800323170636937 -0.41419082179475525 
0.0325 0.109996 0.041854 -0.6485866794769407 -0.6675912294667876 -0.36559167050700037 
0.033 0.109923 0.0405829 0.6905214556404071 0.6544393270824698 0.30804104672607735 
0.0335 0.109865 0.0395659 0.704421869595931 0.6473247002323118 0.29113667255109055 
0.034 0.109799 0.0384219 0.7094061598868496 0.6614047468294362 0.2434885237256227 
0.0345 0.109755 0.0376592 0.7218981574881451 0.6558348601216271 0.2207797238526836 
0.035 0.109368 0.0309221 -0.45790537713305063 -0.45826998909783223 -0.7617816502679173 
0.0355 0.109346 0.0305407 -0.48212885794298616 -0.4286898738992909 -0.7640528491896367 
0.036 0.109324 0.0301594 0.5500566324280433 0.3967458147533418 0.7348676476738021 
0.0365 0.109302 0.029778 0.5773653731675699 0.379613272626838 0.7228713503194153 
0.037 0.10928 0.0293967 0.5984502195219669 0.3557729296599423 0.7178321233236161 
0.0375 0.109251 0.0288882 0.5947958871178617 0.316696585916714 0.7388647542929444 
0.038 0.109229 0.0285069 0.5730902861250353 0.29837003099637266 0.7632449466274565 
0.0385 0.109207 0.0281255 0.5483709343049094 0.2845152871104749 0.7863462149778586 
0.039 0.109193 0.0278713 0.5261508571213833 0.2825854440849153 0.8020665448338838 
0.0395 0.109178 0.0276171 0.5293765975402072 0.2923681357631074 0.7964177868224434 
0.04 0.109149 0.0271086 0.5444394372908863 0.31547598245889075 0.777213357845824 
0.0405 0.109134 0.0268544 0.5673497684864633 0.32019001176016687 0.7586781903860033 
0.041 0.109112 0.026473 0.5845560608174768 0.3268005363322582 0.7426275117543807 
0.0415 0.109083 0.0259646 0.5996938362518854 0.3344863516668728 0.7269705518864448 
0.042 0.109061 0.0255832 0.6325561825863436 0.34246861097940573 0.6946854873722559 
0.0425 0.109039 0.0252019 0.6549300944851537 0.32278412063323336 0.6832839693748841 
0.043 0.10901 0.0246934 0.6581926225382995 0.30680047828571266 0.6874997732070998 
0.0435 0.108981 0.024185 0.6690644484044258 0.27336768694179936 0.6911026491176051 
0.044 0.108952 0.0236765 0.670061256965593 0.2336787552730684 0.7045652214293003 
0.0445 0.10893 0.0232951 0.6693489188042135 0.20160913647762344 0.7150704727398395 
0.045 0.108901 0.0227867 0.6751564861413295 0.16402893794125423 0.7192066648322698 
0.0455 0.108879 0.0224053 0.6918612777093797 0.1438789461060108 0.7075498719339637 
0.046 0.108849 0.0218969 0.7006132266814488 0.13815382855773028 0.700039017665337 
0.0465 0.108813 0.0212613 0.7218951421375882 0.14919118005196444 0.6757287884594334 
0.047 0.108791 0.0208799 0.7493646354637046 0.15213435459680236 0.6444437766537617 
0.0475 0.108755 0.0202444 0.7666737892942456 0.16793691972170335 0.6196841871498651 
0.048 0.108711 0.0194817 0.7951405387271089 0.16668566226860726 0.5830672462648188 
0.0485 0.108674 0.0188461 0.8303082506430068 0.16820669672743943 0.5313141406834502 
0.049 0.108638 0.0182105 0.9088479424301172 0.17308609499942307 0.3795215688974644 
0.0495 0.10847 0.0152868 0.8717645509502128 0.31923676548167074 0.37163753210806727 
0.05 0.108433 0.0146513 0.7404033745334363 0.41603794220142004 0.5279349141971075 
0.0505 0.108411 0.0142699 0.7532838793200569 0.43616959427266566 0.4922595678994409 
0.051 0.108375 0.0136344 0.7668758478443243 0.44234545054734964 0.46500745840589586 
0.0515 0.108287 0.012109 0.8247225177682203 0.4293045315947654 0.36814452031538747 
0.052 0.10817 0.0100751 0.8645122732100599 0.41373685498056423 0.2853775469443353 
-0.06875 0.111927 0.0682017 0.8355297706589438 -0.5079454242850364 -0.20947899248017007 
-0.06825 0.111973 0.0692791 0.8303058416234472 -0.5038908908185732 -0.23808859593866233 
-0.06775 0.112061 0.0713142 0.825177723094426 -0.4973152185218055 -0.2678792614879091 
-0.06725 0.112102 0.0722718 0.8266672782498202 -0.4889968521324125 -0.27839412651064593 
-0.06675 0.112164 0.0737083 0.8276445547355262 -0.4697400043209182 -0.30716252922063314 
-0.06625 0.112236 0.0753843 0.8382502754540729 -0.4549676341971972 -0.3005676754645722 
-0.06575 0.112262 0.0759828 0.839623991790793 -0.4480981349838458 -0.30698471270291866 
-0.06525 0.112334 0.0776588 0.8372915330443129 -0.43646921978930897 -0.3292985102742135 
-0.06475 0.112385 0.0788559 0.8337153697815132 -0.43723214972076385 -0.33726359044615883 
-0.06425 0.112427 0.0798135 0.8272390053448612 -0.43502252079595466 -0.35557141960002625 
-0.06375 0.112473 0.0808909 0.8287673717082921 -0.4217654227436954 -0.36777516469925164 
-0.06325 0.11253 0.0822077 0.8316659404249398 -0.4135815950872933 -0.37051589404794855 
-0.06275 0.112571 0.0831654 0.8190604092310184 -0.4005585204035247 -0.41072243396539193 
-0.06225 0.112618 0.0842428 0.7889383161232539 -0.4096436770503474 -0.4580047938671333 
-0.06175 0.112638 0.0847216 0.776558964867139 -0.4182722905274521 -0.4711734978342864 
-0.06125 0.112674 0.0855596 0.7513967894496543 -0.42733505012948525 -0.5027798919364039 
-0.06075 0.11271 0.0863976 0.7394819524928593 -0.4283229189596781 -0.5193321856299775 
-0.06025 0.112736 0.0869961 0.7268835777410636 -0.4275964247686284 -0.5374026069302583 
-0.05975 0.112762 0.0875947 0.7116204677391827 -0.42319799576297523 -0.5608027873297953 
-0.05925 0.112785 0.0881802 0.7054273030619729 -0.41648458872009797 -0.5735092915144118 
-0.05875 0.112808 0.0888593 0.7051275610878645 -0.41140962748742316 -0.5775268314155972 
-0.05825 0.112826 0.0894252 0.7048047551205779 -0.40488092603833054 -0.5825132555485463 
-0.05775 0.112845 0.0899911 0.6925003580807271 -0.3942705963707677 -0.6041472923844847 
