0.0625 0.115309 0.0664062 0.7498127284231718 0.1599446053406063 0.6420269429837322
0.063 0.11528 0.0656881 0.7515700879922109 0.15242165019391005 0.6418021840002928
0.0635 0.115261 0.0652093 0.7557899873751895 0.14872116121826406 0.6377017415605055
0.064 0.115237 0.0646108 0.7808129260784573 0.15376778766099156 0.6055465646394519
0.0645 0.115213 0.0640123 0.8042727676264205 0.15504014210698072 0.5736792392879361
0.065 0.115175 0.0630547 0.8357304147051198 0.14640513829112844 0.5292638372482709
0.0655 0.115142 0.0622168 0.8355786476100452 0.1340248138731226 0.5327716893045674
0.066 0.115118 0.0616183 0.8341340773024776 0.1310009347327305 0.5357789620560847
0.0665 0.115094 0.0610199 0.8377753058911185 0.12049640446640036 0.532553427695018
-0.07175 0.113972 0.0234324 0.7070960505956109 -0.7051125429269176 -0.05321162503838264
-0.07125 0.114269 0.0290239 0.7075540141792784 -0.7042789132596811 -0.05795282009144875
-0.07075 0.11458 0.0348695 0.6714232007165819 -0.7312016160556766 -0.12056152876049298
-0.07025 0.114586 0.0349965 0.6538373863332243 -0.7474372804458898 -0.1176188081583471
-0.06975 0.114843 0.0398255 -0.6214906172501382 0.7516437002164575 0.22086457523775635
-0.06925 0.114856 0.0400796 -0.6469001949501111 0.7044321640887755 0.2920538716927293
-0.06875 0.11491 0.0410963 0.6301003505301562 -0.7561150476243931 -0.17681510969862274
-0.06825 0.114931 0.0414775 -0.6330063965648682 0.7526452903359342 0.18118490235971063
-0.06775 0.114931 0.0414775 -0.6272953604482425 0.7605105309537037 0.1677029011932274
-0.06725 0.114917 0.0412233 -0.6357503654110999 0.753468631689468 0.16764991482149336
-0.06675 0.115316 0.0489308 0.4321666384916666 -0.8682005909963899 -0.24384365968450417
-0.06625 0.115368 0.0502474 0.3463090208323249 -0.861828689827855 -0.3705689834292115
-0.06575 0.115377 0.0504868 0.31425477988482947 -0.8635405408323485 -0.39438771235741144
-0.06525 0.115377 0.0504868 0.2795938482011203 -0.8651726790555654 -0.4162973882501602
-0.06475 0.115396 0.0509656 0.2580682561497317 -0.859535185560327 -0.44113494528501207
-0.06425 0.115405 0.051205 0.2528430233401194 -0.8582105179418555 -0.4467047262366942
-0.06375 0.115415 0.0514444 0.2687885528054807 -0.8512767944134112 -0.45064457521861073
-0.06325 0.115415 0.0514444 0.29583048319955374 -0.8470804460217092 -0.44151901791155135
-0.06275 0.115433 0.0519232 0.33301926477624644 -0.8372604158796428 -0.43369708932495266
-0.06225 0.115438 0.0520429 0.5039355612327895 -0.7875723165924282 -0.35465306464519564
-0.06175 0.115499 0.0535989 0.6716664263853043 -0.659476515247521 -0.3375721219291973
-0.06125 0.115579 0.0556337 0.7547344513812829 -0.5951645524274753 -0.2759620688283026
-0.06075 0.115635 0.0570701 0.7035551711382748 -0.5982466078950335 -0.38355067110706365
-0.06025 0.115663 0.0577882 0.6528071132025016 -0.6100476444150847 -0.4490932469942325
-0.05975 0.115696 0.0586261 0.5628116138287955 -0.6410148254635439 -0.5218650025393246
-0.05925 0.115715 0.0591049 0.4929002801766634 -0.6668698195762018 -0.5588684617512163
-0.05875 0.115729 0.059464 0.4165656881879921 -0.7019408959057158 -0.5777127366430009
-0.05825 0.115733 0.0595836 0.3522741904482285 -0.7256224718309963 -0.5910794558415309
-0.05775 0.115743 0.059823 0.28588061180571167 -0.7435708697756819 -0.6044622712912925
-0.05725 0.115757 0.0601821 0.23528322701764012 -0.741327269464074 -0.6285504614850791
-0.05675 0.115757 0.0601821 0.18724395608099947 -0.7598787775684795 -0.6225142121366948
-0.05625 0.115762 0.0603018 0.15826636341658357 -0.7694146121779459 -0.6188318937950362
-0.05575 0.115762 0.0603018 0.12326818240543613 -0.7799102543517973 -0.6136325858063397
-0.05525 0.115766 0.0604215 0.11756260204680136 -0.7760838328642128 -0.6195747888405225
-0.05475 0.115776 0.0606609 0.13413797130719715 -0.7673648601715445 -0.6270232659379519
-0.05425 0.115776 0.0606609 0.16027061810866175 -0.7640555264561306 -0.6249259807872551
-0.05375 0.115776 0.0606609 0.18930086304457355 -0.7507309524360499 -0.6329045902069608
-0.05325 0.115785 0.0609003 0.21496484680475036 -0.7336471427558959 -0.6446332170810933
-0.05275 0.115794 0.0611397 0.22315552665137908 -0.6945475686580554 -0.6839629272088724
-0.05225 0.115804 0.0613791 -0.2458181293362598 0.6581301138660288 0.7116447150877393
-0.05175 0.115804 0.0613791 -0.2395092609770424 0.6288904456820988 0.7396837981435055
-0.05125 0.115813 0.0616185 -0.22492671008244908 0.5979847150596929 0.7692998476838948
-0.05075 0.115818 0.0617382 -0.19301243549911534 0.5701862439995782 0.7985197849122797
-0.05025 0.115827 0.0619775 -0.16016109208103815 0.5469981344264252 0.8216699249196234
-0.04975 0.115832 0.0620972 -0.1144924269859192 0.5270434638653237 0.8420906550720744
-0.04925 0.115832 0.0620972 -0.0631977420312907 0.5158269587069907 0.8543585863519153
-0.04875 0.115832 0.0620972 -0.02590498417040992 0.4966984411574039 0.8675365066364272
-0.04825 0.115832 0.0620972 0.0015793436927766362 0.4815770201993418 0.8764023501163282
-0.04775 0.115832 0.0620972 0.03018143879622403 0.4840432206962059 0.8745234366500615
-0.04725 0.115832 0.0620972 0.06296817787961997 0.4791671986245019 0.8754620519113708
-0.04675 0.115832 0.0620972 0.08848243460871001 0.4707938921467383 0.877794947515102
-0.04625 0.115827 0.0619775 0.07560512501175508 0.45676094826685243 0.886370859860771
-0.04575 0.115822 0.0618579 0.08848532728548654 0.4434045687542138 0.8919432354489102
-0.04525 0.115822 0.0618579 0.07456322685594251 0.4214961846494839 0.9037595319147441
-0.04475 0.115822 0.0618579 0.08341994533586067 0.3990549059155838 0.9131244683967606
-0.04425 0.115818 0.0617382 0.11894823378428743 0.3844029405567273 0.9154702053977178
-0.04375 0.115818 0.0617382 0.15300510128977302 0.37507113269884257 0.914281731412869
-0.04325 0.115813 0.0616185 0.1839056597053855 0.3714029489214557 0.9100761275084484
-0.04275 0.115808 0.0614988 0.20690066236927632 0.3630379553984991 0.9085128281159448
-0.04225 0.115804 0.0613791 0.24730755021818845 0.3568518115311319 0.9008305946247762
-0.04175 0.115799 0.0612594 0.27843739501003084 0.3601936750186272 0.890355621949232
-0.04125 0.115794 0.0611397 0.3079697853115564 0.3661363156382329 0.8781223204690872
-0.04075 0.115785 0.0609003 0.33322867627550373 0.3721101918333288 0.8663097912649025
-0.04025 0.115776 0.0606609 0.3508266856246134 0.37298591211429083 0.8589541000646772
-0.03975 0.115766 0.0604215 0.37392829839997965 0.37441804222034736 0.8485215125826676
-0.03925 0.115762 0.0603018 0.3812528301174538 0.36760422596162573 0.8482413645788479
-0.03875 0.115752 0.0600624 0.38000261937966684 0.3476496159294709 0.8571684512443767
-0.03825 0.115738 0.0597033 0.374253524342225 0.3357219275620769 0.8644218223017205
-0.03775 0.115733 0.0595836 0.36910802723367475 0.3294314872569856 0.8690420930169696
-0.03725 0.115724 0.0593443 0.35871377188263714 0.32328535725490243 0.8756774563995019
-0.03675 0.115719 0.0592246 0.3665133611473901 0.31447323463704485 0.8756566340737431
-0.03625 0.11571 0.0589852 0.38829494064602915 0.3225129094193809 0.8632568924292137
-0.03575 0.115701 0.0587458 0.40757870017149955 0.3303925232017365 0.8513051061628263
-0.03525 0.115691 0.0585064 0.422372282021863 0.3356158795634255 0.8419997843019392
-0.03475 0.115677 0.0581473 0.44682410289855173 0.3469540308772474 0.8246036147913339
-0.03425 0.115673 0.0580276 0.460738821432029 0.3680498177286225 0.8076255754341569
-0.03375 0.115658 0.0576685 0.46279308017704046 0.38946432139314224 0.7963291450788592
-0.03325 0.115644 0.0573094 0.4846889768288071 0.4088222617223694 0.7732664185523968
-0.03275 0.115635 0.0570701 0.4884165810393164 0.4305404807361496 0.7590020670679033
-0.03225 0.115621 0.056711 0.5137077518225931 0.4366701125412135 0.7385279673313808
-0.03175 0.115607 0.0563519 0.46489926995413505 0.5462841786636798 0.6967368692252915
-0.03125 0.115593 0.0559928 0.4746551459086187 0.5558999278261696 0.6824058636217359
-0.03075 0.115574 0.055514 -0.4625515027878026 -0.5077280454621695 -0.7268138270010485
-0.03025 0.11556 0.0551549 -0.3749394271950815 -0.6000789167298611 -0.7066298321122176
-0.02975 0.115677 0.0581473 -0.13290177516305096 0.9467695173016577 0.293197202010687
-0.02925 0.115687 0.0583867 -0.18986543201148307 0.9483439883465035 0.254155065843945
-0.02875 0.115696 0.0586261 -0.221593462231641 0.9446565217515164 0.24190988695901147
-0.02825 0.115705 0.0588655 0.22302396306567976 -0.9422625891458604 -0.2498029723494458
-0.02775 0.115715 0.0591049 0.18634853253352865 -0.9545161687615449 -0.23275117184534733
-0.02725 0.115729 0.059464 0.17479930763836904 -0.9575182156135764 -0.22935576909539368
-0.02675 0.115738 0.0597033 0.11130742303818938 -0.9724373005600055 -0.20488131700125045
-0.02625 0.115752 0.0600624 0.08986136382356208 -0.9702322575558897 -0.2248873088677333
-0.02575 0.115766 0.0604215 0.09801195942100849 -0.960954948806259 -0.2587648395265759
-0.02525 0.115771 0.0605412 -0.012122016721135026 -0.9774644376789288 -0.21075182035661794
-0.02475 0.115771 0.0605412 -0.029125590773274028 -0.9745873982337012 -0.22210606287576426
-0.02425 0.11564 0.0571898 -0.020827383493807694 0.9319886761658598 0.36188855687270627
-0.02375 0.115658 0.0576685 0.03540849720537595 0.9518775203819889 0.304426386039537
-0.02325 0.115668 0.0579079 0.05394358536653299 0.9467043636524964 0.31755462119000144
-0.02275 0.115691 0.0585064 0.033171361709222996 0.9427116596558496 0.3319553998826792
-0.02225 0.115705 0.0588655 -0.023674015190099124 -0.9482167655049215 -0.3167404404558466
-0.02175 0.115715 0.0591049 -0.0064314300693727984 -0.9297277861809519 -0.36819136370959193
-0.02125 0.115705 0.0588655 0.012449521933893034 -0.9113553721113024 -0.4114321269996877
-0.02075 0.115691 0.0585064 -0.0016407207630127116 -0.9117217263224189 -0.4108050654349896
-0.02025 0.115701 0.0587458 -0.012921597762816326 -0.9106206454242791 -0.41304124786554364
-0.01975 0.115701 0.0587458 -0.018804953100039594 -0.9124228330893219 -0.40881652045405514
-0.01925 0.115696 0.0586261 -0.058391857980032304 -0.9115437598237013 -0.40703607315336354
-0.01875 0.115696 0.0586261 -0.07299313093678172 -0.9101685483603633 -0.407756319891715
-0.01825 0.115691 0.0585064 -0.08584574077068947 -0.910034543311107 -0.4055460994413293
-0.01775 0.115691 0.0585064 -0.11920994019466288 -0.9048255212224474 -0.40875391900666996
-0.01725 0.115677 0.0581473 -0.14310282907103158 -0.9002312473737059 -0.4112241257074402
-0.01675 0.115663 0.0577882 -0.1545412920738059 -0.895373941976532 -0.4176391900595116
-0.01625 0.115649 0.0574291 -0.18662759574728668 -0.8912608676134189 -0.4133088510624508
-0.01575 0.115649 0.0574291 -0.20037100403683114 -0.8885570486888817 -0.41269581045435416
-0.01525 0.115644 0.0573094 -0.23502880918967306 -0.8781244707391148 -0.41672397668004885
-0.01475 0.11564 0.0571898 -0.2586387230809734 -0.8779077888229528 -0.40296888868377573
-0.01425 0.11563 0.0569504 -0.27944474148974624 -0.8664409788199122 -0.4137519385759073
-0.01375 0.115607 0.0563519 -0.29457175233362315 -0.851407838218143 -0.43397255183687256
-0.01325 0.115593 0.0559928 -0.2657911741436377 -0.8458777244265052 -0.46243478141937333
-0.01275 0.115588 0.0558731 -0.2363228215644803 -0.8480043572013545 -0.4743839522742316
-0.01225 0.115574 0.055514 -0.19405923246374118 -0.8490347643682719 -0.49140714605070285
-0.01175 0.115565 0.0552746 -0.13614575833759035 -0.8444504069267074 -0.5180423175069782
-0.01125 0.115565 0.0552746 -0.13958622230216142 -0.8136127215796871 -0.5644023616420347
-0.01075 0.11556 0.0551549 -0.13355868634959583 -0.8048793321854604 -0.5782139205529885
-0.01025 0.11556 0.0551549 -0.11970252163405865 -0.7920982408156279 -0.5985412961619568
-0.00975 0.115555 0.0550352 -0.11886361646511322 -0.7858420049419154 -0.6068968478660152
-0.00925 0.115555 0.0550352 -0.1258695681249833 -0.7802640927271959 -0.6126538969276504
-0.00875 0.115546 0.0547958 -0.12600854264527592 -0.7896629580346521 -0.600461705596932
-0.00825 0.115546 0.0547958 -0.12608610466732212 -0.7867091483677853 -0.6043103590740897
-0.00775 0.115541 0.0546762 -0.13493268614922038 -0.7981129666254942 -0.5872042768175388
-0.00725 0.115532 0.0544368 -0.14632963724437859 -0.8027672969304389 -0.5780590836955379
-0.00675 0.115532 0.0544368 -0.1618273695335089 -0.7921124775663245 -0.5885318388614198
-0.00625 0.115532 0.0544368 -0.1752757355826829 -0.7852216335075882 -0.593890059512385
-0.00575 0.115523 0.0541974 -0.17162668536661724 -0.7747447503818558 -0.6085350052592079
-0.00525 0.115513 0.053958 -0.17009825340965118 -0.7808772505411721 -0.601080114272836
-0.00475 0.115508 0.0538383 -0.16087187062745417 -0.7804490169540409 -0.604168497338528
-0.00425 0.115504 0.0537186 -0.13116393029554071 -0.785502195248219 -0.6047994086055768
-0.00375 0.115499 0.0535989 -0.09640237710699748 -0.7833509409524733 -0.6140585354809385
-0.00325 0.115494 0.0534792 -0.055338368046305556 -0.7843977675986575 -0.6177845961240975
-0.00275 0.115494 0.0534792 0.001765086617188641 -0.7733527190322534 -0.6339735455321888
-0.00225 0.115494 0.0534792 0.04666719372538812 -0.7611897894290782 -0.646847955472314
-0.00175 0.115499 0.0535989 0.07474085406362618 -0.7420930206902119 -0.6661169217012255
-0.00125 0.115504 0.0537186 0.09450013839585077 -0.7280355705566274 -0.6789947951549047
-0.00075 0.115508 0.0538383 0.11639894255773393 -0.7215432505344358 -0.6825149256826856
-0.00025 0.115508 0.0538383 0.12192218808134167 -0.7268093585861098 -0.6759313103600879
0.00025 0.115508 0.0538383 0.11734771260304297 -0.7312651525149885 -0.6719232032487523
0.00075 0.115513 0.053958 0.10203280770884854 -0.7420588067758506 -0.6625239870657137
0.00125 0.115518 0.0540777 0.07426231762819063 -0.757334974059842 -0.648790293736172
0.00175 0.115518 0.0540777 0.04488123417449619 -0.7792710454565794 -0.6250778451776897
0.00225 0.115527 0.0543171 0.01949579529006188 -0.7815454892779315 -0.6235435527333487
0.00275 0.115527 0.0543171 -0.017621929014493727 -0.7878599984702143 -0.6156022176928233
0.00325 0.115523 0.0541974 -0.0440972391769295 -0.7905328756446202 -0.6108299321595334
0.00375 0.115523 0.0541974 -0.07134965087985268 -0.7917283870698232 -0.6066921694130718
0.00425 0.115518 0.0540777 -0.10015352244422111 -0.7938777056459089 -0.5997728406825391
0.00475 0.115513 0.053958 -0.12202203137976246 -0.7898974886517292 -0.600976356672746
0.00525 0.115508 0.0538383 -0.13947254172117957 -0.7855284074986827 -0.6029034177365535
0.00575 0.115499 0.0535989 -0.15323052302625992 -0.7762371331796515 -0.6115360331870355
0.00625 0.115499 0.0535989 -0.16233744193001348 -0.7673324929144941 -0.620360701741533
0.00675 0.11549 0.0533595 -0.16298798130023334 -0.7605637174663856 -0.6284725528019396
0.00725 0.115485 0.0532398 -0.1629611532404419 -0.7567347153782956 -0.6330846966053396
0.00775 0.115485 0.0532398 -0.16753249323120498 -0.7452000944110649 -0.6454530835014084
0.00825 0.11548 0.0531201 -0.15973324479073217 -0.7381129924170058 -0.6554956147327281
0.00875 0.115476 0.0530004 -0.13584050022407232 -0.7201626390819654 -0.6803771981550915
0.00925 0.115471 0.0528807 -0.07848991984560348 -0.7090517041730225 -0.700774580940236
0.00975 0.115466 0.052761 0.018464587078831786 0.6867506291012727 0.7266585391041753
0.01025 0.115466 0.052761 -0.018020131302451618 0.6840524652352215 0.7292101889534035
0.01075 0.115466 0.052761 -0.10637514306466526 0.6893073674490072 0.7166168307530122
0.01125 0.11548 0.0531201 -0.2589677148618462 0.6695052636609823 0.6962028616642367
0.01175 0.115485 0.0532398 0.36938996854913553 -0.6593772573394774 -0.6548073637633729
0.01225 0.115508 0.0538383 0.6933827749775945 -0.28842195142615507 -0.6603280285584577
0.01275 0.115546 0.0547958 0.7579695688292585 -0.07123497281503043 -0.6483885496959596
0.01325 0.115583 0.0557534 0.7674125721985536 -0.019575052779562285 -0.6408547115690708
0.01375 0.115602 0.0562322 0.8070883033960559 -0.05111525089218103 -0.5882139930735288
0.01425 0.115612 0.0564716 0.8477692466810138 -0.14662400864746114 -0.5096947169336321
0.01475 0.115701 0.0587458 0.8619204140320306 -0.28447636562084255 -0.4197218093904697
0.01525 0.115724 0.0593443 0.8392751738097161 -0.2814463985480734 -0.46519362352787025
0.01575 0.115757 0.0601821 0.7763075997750531 -0.21715466134795083 -0.591768843034468
0.01625 0.115776 0.0606609 0.7468734398849967 -0.21877767392241484 -0.627946171409182
0.01675 0.115799 0.0612594 0.6999419092652946 -0.24568087079938342 -0.6706133262747698
0.01725 0.115822 0.0618579 -0.6820885985925894 0.25894184943731063 0.6838890716190622
0.01775 0.115837 0.0622169 -0.6801217370217184 0.2607553532798609 0.6851576961302087
0.01825 0.115851 0.062576 -0.6722857491945124 0.26718690106034476 0.6903933888238956
0.01875 0.115879 0.0632942 -0.654754771516081 0.25710091161343823 0.7107709268283724
0.01925 0.115893 0.0636533 -0.629234503337881 0.25772794162924423 0.7332395569748562
0.01975 0.115912 0.0641321 -0.5683941962515929 0.2557913588258749 0.7819838990781832
0.02025 0.115926 0.0644912 -0.5194979992004891 0.26017582900992464 0.8138982533619832
0.02075 0.11594 0.0648502 -0.5034931991710873 0.2603384413168619 0.823843731760563
0.02125 0.115944 0.0649699 -0.4963920116036914 0.27022714410562415 0.8249680365956968
0.02175 0.115958 0.065329 -0.49945525332229945 0.2711815098226343 0.8228031591207426
0.02225 0.115968 0.0655684 -0.4916574793959312 0.2722669410882831 0.8271297575014871
0.02275 0.115982 0.0659275 -0.493377873771999 0.25872255182030407 0.8304462143039798
0.02325 0.115996 0.0662866 -0.47266206046076376 0.25682733455991646 0.8429889067027123
0.02375 0.116001 0.0664063 -0.4663016868925695 0.2566594451980065 0.8465746665190234
0.02425 0.116015 0.0667653 -0.47144706657866403 0.258189330177198 0.8432531845163839
0.02475 0.116024 0.0670048 -0.4875261253685176 0.2556068522035158 0.8348553253047921
0.02525 0.116033 0.0672441 -0.5073334097255221 0.2561862498957231 0.822788804457524
0.02575 0.116052 0.0677229 -0.627515772809679 0.21299600382204062 0.748903636812449
0.02625 0.116062 0.0679623 0.7174819364274813 -0.18476431703235696 -0.6716262487811495
0.02675 0.116108 0.0691593 0.7207745980582977 -0.20802661769889316 -0.6612177441075353
0.02725 0.116127 0.0696381 0.7221589889896232 -0.2617736495050299 -0.6402819309072395
0.02775 0.116146 0.0701168 0.6762369074656491 -0.30431189280047494 -0.6708933722146071
0.02825 0.116151 0.0702365 0.7870068284366492 -0.24287769250088473 -0.5671249231690779
0.02875 0.116132 0.0697577 0.7870068284375862 -0.24287769250011276 -0.5671249231681084
0.02925 0.116244 0.0726304 0.8247569359656499 0.059203789183062495 -0.5623796830637823
0.02975 0.116272 0.0733486 0.8034299739714322 0.06314738802099806 -0.5920411170775131
0.03025 0.116301 0.0740668 0.7602330018964611 0.04517622766423549 -0.6480778435354233
0.03075 0.116319 0.0745455 -0.6808302350641463 -0.0383514636752949 0.7314365018622339
0.03125 0.116343 0.075144 0.6462471092877162 0.0439424457282237 -0.7618620184788663
0.03175 0.116357 0.0755031 0.8279749015627048 -0.06953102773928357 -0.5564377760035243
0.03225 0.116352 0.0753834 0.8279749015621103 -0.06953102773952727 -0.5564377760043783
0.03275 0.116446 0.0777773 0.8918811345763787 -0.1506288217798712 -0.42644929339366844
0.03325 0.116479 0.0786152 0.7375451460228725 -0.13548689901895444 -0.6615666691818198
0.03375 0.116502 0.0792137 -0.6542327808571938 0.11960628253594718 0.7467756059418346
0.03425 0.116516 0.0795728 -0.5209548268740052 0.09317250340889642 0.8484839143821138
0.03475 0.11653 0.0799318 -0.4052731135232018 0.12890052502713106 0.9050626266192521
0.03525 0.116535 0.0800515 -0.30326469330859285 0.1267954745352408 0.944432863378773
0.03575 0.11654 0.0801712 -0.1689379227550921 0.1342650451023879 0.9764388746454374
0.03625 0.116544 0.0802909 -0.05812331226754691 0.1267156791436343 0.9902347283499083
0.03675 0.116544 0.0802909 0.03840137675835778 0.14730911780751613 0.9883447566885929
0.03725 0.11654 0.0801712 0.08494614813539662 0.15207566276383017 0.9847117063952784
0.03775 0.11654 0.0801712 0.1426454032778713 0.15857547582669693 0.9769882841621131
0.03825 0.116535 0.0800515 0.1852844439165286 0.1635081697406285 0.9689864567013373
0.03875 0.11653 0.0799318 0.21266645398120904 0.17055246232084822 0.9621251669857483
0.03925 0.116526 0.0798121 0.23720704174132115 0.170918009522098 0.9563053138874296
0.03975 0.116521 0.0796924 0.26303831565932734 0.17067906053099977 0.9495680611685291
0.04025 0.116516 0.0795728 0.26716944383881835 0.16725649840668033 0.9490235782211065
0.04075 0.116511 0.0794531 0.26304954592837415 0.1760546904637009 0.9485829865397157
0.04125 0.116502 0.0792137 0.25986863273136857 0.17551731467837237 0.9495588270193809
0.04175 0.116502 0.0792137 0.27304229367978095 0.18094285617946243 0.9448320425661392
0.04225 0.116493 0.0789743 0.28894262835930695 0.18932087434285702 0.9384400695062373
0.04275 0.116488 0.0788546 0.2961213624509826 0.1914912080855952 0.9357581182795546
0.04325 0.116479 0.0786152 0.30098415949774554 0.1851276401262201 0.9354871953120107
0.04375 0.116474 0.0784955 0.3025388881659376 0.18620101327162236 0.9347723807451412
0.04425 0.116469 0.0783758 0.33459745908915106 0.1814177686563521 0.9247335473458471
0.04475 0.11646 0.0781364 0.34164806065091397 0.17666157392177106 0.9230749108024505
0.04525 0.116455 0.0780167 0.36437638835908337 0.17439748597151705 0.9147761280735329
0.04575 0.116446 0.0777773 0.3633706034343439 0.1754860179483879 0.9149680114978768
0.04625 0.116436 0.0775379 0.37967286380842613 0.17593721433143003 0.9082370907977744
0.04675 0.116427 0.0772985 0.3978161816853489 0.18185994236817085 0.8992603888480438
0.04725 0.116422 0.0771788 0.40686589082652275 0.18185491442592408 0.8952032936607639
0.04775 0.116413 0.0769395 0.42126779965482714 0.18158152479882517 0.8885727830772863
0.04825 0.116399 0.0765804 0.4189927438810024 0.18183056247107407 0.8895969464462665
0.04875 0.116394 0.0764607 0.4353772595546545 0.18123880026511877 0.8818158192849226
0.04925 0.116385 0.0762213 0.4422497151680076 0.17480170060795983 0.8796928753254635
0.04975 0.116376 0.0759819 0.45488440876713676 0.17106103863572414 0.8739669877755335
0.05025 0.116361 0.0756228 0.47647133459793956 0.16953748618924658 0.8626888825544752
0.05075 0.116347 0.0752637 0.4852025904762092 0.15848189875502758 0.8599197253012499
0.05125 0.116343 0.075144 0.49237050858385883 0.16416489866340006 0.8547638085013355
0.05175 0.116329 0.0747849 0.48651502930889634 0.16312734745668506 0.8583079836330952
0.05225 0.116319 0.0745455 0.5085971401615171 0.1608442956946492 0.845847540377117
0.05275 0.116305 0.0741865 0.5243891887824669 0.1610659709412732 0.8361062921021533
0.05325 0.116296 0.0739471 0.5228125920241975 0.15973496939232643 0.837348035869299
0.05375 0.116282 0.073588 0.5369373639962264 0.14758790513845121 0.8306118692877121
0.05425 0.116268 0.0732289 0.5482874557272512 0.1472659436156992 0.8232214815850685
0.05475 0.116258 0.0729895 0.5620130520937247 0.15119565257027084 0.8131919846629985
0.05525 0.116244 0.0726304 0.5667242065634814 0.15431470858465093 0.8093272789233207
0.05575 0.116226 0.0721517 0.5721960131113559 0.15525896131725608 0.8052865188925962
0.05625 0.116216 0.0719123 0.5812147902194834 0.16300667827205848 0.7972566653649449
0.05675 0.116202 0.0715532 0.5948629444748325 0.16247506306863488 0.7872356262083007
0.05725 0.116188 0.0711941 0.6080610122629916 0.17001500306833026 0.7754719234745908
0.05775 0.116169 0.0707153 0.6271778468755214 0.18016750028085546 0.7577516877124941
0.05825 0.116155 0.0703562 0.6362184158947453 0.183149974997447 0.7494546109904292
0.05875 0.116136 0.0698774 0.6460944014148342 0.18097892654782682 0.741490831100428
0.05925 0.116118 0.0693986 0.6510782400292435 0.18185736203474012 0.736902317294625
0.05975 0.116104 0.0690396 0.6633844957918591 0.19304778123491068 0.722947830001072
0.06025 0.116085 0.0685608 0.6773985983972485 0.17826299136848725 0.713690020105229
0.06075 0.116066 0.068082 0.6950441163636049 0.1756625924962648 0.6971774020332464
0.06125 0.116047 0.0676032 0.7126344495866385 0.1843456405218265 0.6768816928259667
0.06175 0.116024 0.0670048 0.7319562753183252 0.1773329629041846 0.6578700717389014
0.06225 0.116001 0.0664063 0.7440288309605897 0.17402013782030876 0.6450876609674214
0.06275 0.115982 0.0659275 0.7449635081618877 0.17417217017320313 0.6439669453040968
0.06325 0.115954 0.0652093 0.7494441440533314 0.17157160468300436 0.63945027907623
0.06375 0.115935 0.0647305 0.7757369515369317 0.1770389649338158 0.6057139480937773
0.06425 0.115912 0.0641321 0.7872879579555255 0.18069805635586275 0.5895132599759164
0.06475 0.115879 0.0632942 0.8266266105898835 0.18187441854824885 0.5325506009220321
0.06525 0.115855 0.0626957 0.830834407266727 0.1800299699938678 0.5265960478447912
0.06575 0.115813 0.0616185 0.8208269253630752 0.17140900116296412 0.5448505418179518
0.06625 0.11579 0.06102 0.8254498751514974 0.1568844308803217 0.5422359071103042
-0.072 0.114685 0.0233068 0.7070960505953294 -0.7051125429271891 -0.053211625038524446
-0.0715 0.114698 0.023561 0.6445545250529684 -0.7575513417465374 -0.10327356317936998
-0.071 0.114718 0.0239422 0.64455452505365 -0.7575513417460171 -0.10327356317893258
-0.0705 0.115298 0.0349975 0.5379748465391669 -0.8063635123873345 -0.24568465638195774
-0.07 0.115312 0.0352516 0.5369095635541443 -0.8115217363883491 -0.2305658082486139
-0.0695 0.115345 0.035887 0.5377424950470624 -0.8123357501599153 -0.2257069738237783
-0.069 0.115539 0.0395721 0.6219513698726788 -0.7552427497051794 -0.2068450689072819
-0.0685 0.115559 0.0399533 -0.636566204738315 0.7461718225802909 0.19496429973783602
-0.068 0.115619 0.041097 -0.6580541156718775 0.7182335024936108 0.2260650719219202
-0.0675 0.115652 0.0417323 -0.6393092720339949 0.7488348410679637 0.17472846217511587
-0.067 0.115685 0.0423677 -0.6562950522839546 0.7329261417645854 0.1791537749132871
-0.0665 0.115965 0.0477047 0.47204289805094574 -0.8635955505751325 -0.17713900594306806
-0.066 0.115945 0.0473235 0.5164181601096544 -0.8282173466038714 -0.21764262150002284
-0.0655 0.116024 0.0490509 -0.3490191178669323 0.8828760695064674 0.31419023100058285
-0.065 0.116038 0.0494099 0.328898117022519 -0.8733771347451179 -0.35921916586319474
-0.0645 0.116033 0.0492902 0.3424764771679219 -0.868947764149412 -0.357266911099234
-0.064 0.116033 0.0492902 0.3432668779521334 -0.8647495708359655 -0.3665733626983947
-0.0635 0.116057 0.0498887 0.2977103621110859 -0.8582104931326421 -0.41814266676424383
-0.063 0.11608 0.0504872 0.29866387179776954 -0.8425690206623497 -0.44819341483655706
-0.0625 0.116098 0.0509659 0.36459883692662226 -0.8449097638513184 -0.3914015573045964
-0.062 0.116107 0.0512053 0.5302088978760225 -0.7808255971806018 -0.3304389677393539
-0.0615 0.11619 0.0533598 0.7065450854608871 -0.645786434044721 -0.28940270180990196
-0.061 0.116245 0.0547961 0.7399435030260555 -0.6178722233346726 -0.2659276743044958
-0.0605 0.116301 0.0562324 0.6739231756675371 -0.6626922436795015 -0.3265984437580958
-0.06 0.116338 0.05719 0.5899040986119274 -0.7076509924825438 -0.38890002221563363
-0.0595 0.116361 0.0577884 0.5041708643523111 -0.7254050885901921 -0.4686141237582355
-0.059 0.116374 0.0581475 0.4331283094563309 -0.7587477262123021 -0.48652004636516494
-0.0585 0.116393 0.0586263 0.3456834105875549 -0.7707826193023232 -0.5351608481811854
-0.058 0.116402 0.0588657 0.27969700665596 -0.7847178882669816 -0.5531612968217359
-0.0575 0.116407 0.0589854 0.23305708484048882 -0.7883635988425596 -0.5693568575381005
-0.057 0.116416 0.0592247 0.19339919378807577 -0.7934098719162611 -0.5771460187750969
-0.0565 0.116421 0.0593444 0.1564973743583879 -0.796127945166256 -0.5845415868390252
-0.056 0.116421 0.0593444 0.13913382096111243 -0.7941397618622514 -0.5915943022833534
-0.0555 0.116425 0.0594641 0.12932417492873216 -0.7899978834988726 -0.5993151106440621
-0.055 0.116425 0.0594641 0.1453319662121329 -0.783872433556879 -0.6036742726889492
-0.0545 0.11643 0.0595838 0.17240141356256317 -0.7735176190738441 -0.6098755984493571
-0.054 0.116434 0.0597035 0.20699093018855483 -0.7615571558334561 -0.6141542584876651
-0.0535 0.116444 0.0599429 0.24936803520716214 -0.7475113746296232 -0.6156641355611439
-0.053 0.116453 0.0601823 0.27007235281989705 -0.7289051802903204 -0.6290931269599602
-0.0525 0.116462 0.0604217 0.30028450337254803 -0.7075952019457816 -0.6396391539122748
-0.052 0.116471 0.0606611 0.3089694221111528 -0.6904724779301787 -0.65405324968328
-0.0515 0.116485 0.0610201 -0.28924097159826856 0.6703964718022547 0.6833068351362939
-0.051 0.11649 0.0611398 -0.26269161412781844 0.6486970799960193 0.7142725070108463
-0.0505 0.116499 0.0613792 -0.22097297789223888 0.622778433960615 0.7505451120585623
-0.05 0.116504 0.0614989 -0.1767970858716872 0.604150748634995 0.7770100793111081
-0.0495 0.116508 0.0616186 -0.12908246599435658 0.5861057765770051 0.7998860766608464
-0.049 0.116508 0.0616186 -0.08508732133116226 0.5752137454210554 0.8135657901038912
-0.0485 0.116513 0.0617383 -0.03699269302455994 0.5581626764547637 0.8289064888608637
-0.048 0.116513 0.0617383 0.004526684637728542 0.5422295377842399 0.8402182082533561
-0.0475 0.116508 0.0616186 0.03706181582386032 0.5270534544207952 0.8490236027290085
-0.047 0.116508 0.0616186 0.05502912738923304 0.5083963710036249 0.8593630926966342
-0.0465 0.116504 0.0614989 0.04754722577813848 0.49876056137100055 0.8654346675178244
-0.046 0.116504 0.0614989 0.04915783019178912 0.48246380215725515 0.8745354122840311
-0.0455 0.116504 0.0614989 0.03800954813412615 0.4691433041015838 0.8823037087461938
-0.045 0.116508 0.0616186 0.047767665817350265 0.44031168823388145 0.8965734031896055
-0.0445 0.116504 0.0614989 0.08056363116751339 0.42910361850260614 0.8996552594861406
-0.044 0.116504 0.0614989 0.11421714721658839 0.41989826488295384 0.9003554245018959
-0.0435 0.116499 0.0613792 0.16200120348029232 0.41546700150693944 0.8950657968718108
-0.043 0.116494 0.0612595 0.18262564997668804 0.41305055245515104 0.8922091195942163
-0.0425 0.11649 0.0611398 0.23191172398105897 0.4128071169306619 0.8807992032759385
-0.042 0.116485 0.0610201 0.27290110441767773 0.4130447596297167 0.8688607562492631
-0.0415 0.11648 0.0609004 0.30471374878676416 0.4206880168231967 0.8545005112939855
-0.041 0.116471 0.0606611 0.32428298512395504 0.422595240001242 0.8463177941455499
-0.0405 0.116462 0.0604217 0.34232327031170384 0.42528867307894025 0.8378211761192565
-0.04 0.116457 0.060302 0.3603385088238595 0.41839131592072754 0.8337294919940875
-0.0395 0.116448 0.0600626 0.3568026063248901 0.404390093095458 0.8421167096822223
-0.039 0.116439 0.0598232 0.3542513092282724 0.38783695425492476 0.8509339027352938
-0.0385 0.11643 0.0595838 0.3570447600914288 0.3700597375264801 0.8576565920886323
-0.038 0.116425 0.0594641 0.35675195603106585 0.3631675498493366 0.8607191020329676
-0.0375 0.116416 0.0592247 0.3484853928014641 0.3561580794578204 0.8670117377757501
-0.037 0.116407 0.0589854 0.35929742648816454 0.35241454358646973 0.8641234569132599
-0.0365 0.116402 0.0588657 0.386681620934427 0.3517522850674128 0.8524949583319409
-0.036 0.116393 0.0586263 0.4047949752700238 0.3564145809475817 0.8420865005948621
-0.0355 0.116384 0.0583869 0.42525487775369103 0.3588948904787337 0.8308746876244041
-0.035 0.116374 0.0581475 0.44427708652261766 0.3650821400115473 0.8181276803993149
-0.0345 0.116361 0.0577884 0.4722265621658828 0.36980675405809327 0.8001531344923972
-0.034 0.116351 0.0575491 0.48938236617749215 0.38279463903937444 0.783564396841277
-0.0335 0.116338 0.05719 0.4937890015244513 0.4033942799566128 0.7703541243296951
-0.033 0.116324 0.0568309 0.5098267044867146 0.42176930087179565 0.7497915631922866
-0.0325 0.11631 0.0564718 0.5106675473431979 0.4388337371860507 0.7393535062456977
-0.032 0.116296 0.0561127 0.536744017049626 0.43868310826165735 0.7207378099470861
-0.0315 0.116282 0.0557537 0.5479314924202139 0.4389180577940406 0.7121250017774018
-0.031 0.116269 0.0553946 0.5394695259176464 0.4450023739021972 0.7148045312024811
-0.0305 0.116255 0.0550355 0.4928876525846751 0.5068666372786977 0.7072114068249704
-0.03 0.116241 0.0546764 0.38053055358746235 0.6184990856143109 0.687499366458385
-0.0295 0.116232 0.054437 -0.19336150044884357 -0.7826019988132534 -0.5917308861278685
-0.029 0.116222 0.0541977 -0.1333145536733847 -0.8600908009051258 -0.4924134888254438
-0.0285 0.116259 0.0551552 -0.09582049508861676 0.8922857169626622 0.4411854848308137
-0.028 0.116273 0.0555143 -0.12455257922589319 0.9212241394969277 0.3685549345977107
-0.0275 0.116278 0.055634 -0.1569848499647342 0.9581421047218156 0.23941483671819377
-0.027 0.116282 0.0557537 -0.14182166052424963 0.9588571733448649 0.24592587853099251
-0.0265 0.116292 0.055993 0.10228995117520923 -0.9668861811607203 -0.23381163052554174
-0.026 0.116296 0.0561127 0.056275097278866086 -0.9702423974128528 -0.23550542178220457
-0.0255 0.116301 0.0562324 -0.028508882799871904 0.9622661257634133 0.27061254000835633
-0.025 0.116315 0.0565915 -0.008593996510154904 0.9619017083724273 0.273260400816126
-0.0245 0.116319 0.0567112 -0.0053430461363415255 0.9536858795620684 0.3007568702156418
-0.024 0.116333 0.0570703 -0.010210028577568087 0.9358800090939948 0.35217092993980803
-0.0235 0.116342 0.0573096 -0.013280683860998399 0.9240657308435776 0.38200281218429444
-0.023 0.116351 0.0575491 0.016603009866102466 -0.9165652589845102 -0.39954031847367255
-0.0225 0.116356 0.0576687 0.015187058415146447 -0.9170387530451966 -0.3985088188108335
-0.022 0.116328 0.0569506 0.033062739769953005 -0.9242372589512567 -0.3803844691955389
-0.0215 0.116319 0.0567112 0.027947050957198075 -0.9261160304108078 -0.3762021538467361
-0.021 0.116328 0.0569506 0.019250613508385958 -0.930082618176152 -0.36684565861700613
-0.0205 0.116333 0.0570703 -0.014744429781983056 -0.9252554589131359 -0.37905796066280734
-0.02 0.116328 0.0569506 -0.02153964763558691 -0.9265601444697166 -0.3755294159716291
-0.0195 0.116338 0.05719 -0.02895430239175776 -0.9263226378207786 -0.37561685137086337
-0.019 0.116338 0.05719 -0.05621942398180612 -0.9182932109123441 -0.3918889576901233
-0.0185 0.116333 0.0570703 -0.07526991532363629 -0.9132872029477872 -0.40030104269034816
-0.018 0.116324 0.0568309 -0.09803238173727481 -0.9078295198628098 -0.4077195298199212
-0.0175 0.116324 0.0568309 -0.11468567082909337 -0.904108492063885 -0.4116248674271868
-0.017 0.116319 0.0567112 -0.13260752704317144 -0.9013272690033952 -0.4123401483270528
-0.0165 0.11631 0.0564718 -0.15468735597804056 -0.8951309245849147 -0.41810578775266743
-0.016 0.116305 0.0563521 -0.19134332763974712 -0.8909639751495573 -0.4117899051135754
-0.0155 0.116301 0.0562324 -0.22214401440536835 -0.8879975147057908 -0.40263190477184774
-0.015 0.116296 0.0561127 -0.24883118179238606 -0.880238643273191 -0.4040581317785556
-0.0145 0.116287 0.0558734 -0.26476506763130436 -0.881859959732172 -0.3901569817180808
-0.014 0.116236 0.0545567 -0.20053033622135868 -0.9021231080611668 -0.38204905726491356
-0.0135 0.116236 0.0545567 -0.18154866299775954 -0.8933051589905112 -0.4111520106781231
-0.013 0.116236 0.0545567 -0.13197303351853956 -0.8846877568357824 -0.44711373422070816
-0.0125 0.116227 0.0543173 -0.0993858664474269 -0.8785639203337642 -0.4671700840574678
-0.012 0.116232 0.054437 -0.07857779587398865 -0.8479193654177285 -0.5242692817104418
-0.0115 0.116232 0.054437 -0.09403679557399229 -0.8374486691922733 -0.5383649390016643
-0.011 0.116227 0.0543173 -0.10021346960141263 -0.8252303804801168 -0.5558345793876884
-0.0105 0.116227 0.0543173 -0.09091534210963617 -0.8212881395541956 -0.5632230396536493
-0.01 0.116227 0.0543173 -0.09848572265838848 -0.8181790222337252 -0.5664659301397749
-0.0095 0.116218 0.054078 -0.11550029055293949 -0.8177084295641235 -0.5639260652798037
-0.009 0.116213 0.0539583 -0.12508039449053965 -0.8186765944554134 -0.5604672413308182
-0.0085 0.116209 0.0538386 -0.1297943972382763 -0.8207088692019089 -0.556408452900274
-0.008 0.116209 0.0538386 -0.13544004998857245 -0.8201328139833908 -0.5559120076835703
-0.0075 0.116199 0.0535992 -0.13932641462096668 -0.820764971015688 -0.5540153540674512
-0.007 0.116199 0.0535992 -0.1467600833206358 -0.8163611338546067 -0.5585839033442882
-0.0065 0.116195 0.0534795 -0.15377629487927005 -0.8179304267295839 -0.5543849458302097
-0.006 0.116186 0.0532401 -0.1544284182483122 -0.8181813041654777 -0.5538332033666837
-0.0055 0.116181 0.0531204 -0.14895157241852708 -0.8179912280638167 -0.5556111768896456
-0.005 0.116176 0.0530007 -0.1442924014720349 -0.8129570643883424 -0.5641635528271227
-0.0045 0.116172 0.052881 -0.10957146097567741 -0.8072536300685881 -0.5799445419009845
-0.004 0.116163 0.0526416 -0.07713978126063427 -0.7996559378460446 -0.595482858875572
-0.0035 0.116163 0.0526416 -0.025795341954443128 -0.7912840029016543 -0.6109044336763224
-0.003 0.116163 0.0526416 0.018738854919116563 -0.7826823873033341 -0.6221391612183516
-0.0025 0.116167 0.0527613 0.055917795112075785 -0.7767389548074451 -0.6273354734704881
-0.002 0.116167 0.0527613 0.0991954589487404 -0.7699797938074802 -0.6303105409654348
-0.0015 0.116172 0.052881 0.11330842854139121 -0.7564323287094749 -0.6441826853499256
-0.001 0.116176 0.0530007 0.12525612808889128 -0.7508923099122989 -0.6484378468987999
-0.0005 0.116181 0.0531204 0.11535842050397484 -0.7562675939828948 -0.644012236770507
0.0 0.116186 0.0532401 0.09369050348819236 -0.7596527448785066 -0.6435447123197264
0.0005 0.116186 0.0532401 0.06923554296981545 -0.7679108442019019 -0.6368040318236037
0.001 0.11619 0.0533598 0.04807745248564763 -0.7786057584193696 -0.6256689472226414
0.0015 0.116195 0.0534795 0.023205069908821076 -0.7900122344250486 -0.6126517723709519
0.002 0.11619 0.0533598 0.006075903450929003 -0.7948352502630683 -0.606794865120413
0.0025 0.116186 0.0532401 -0.0205869817107369 -0.800455518583684 -0.5990385120782864
0.003 0.116186 0.0532401 -0.036962821992476136 -0.801540890937733 -0.596796405774279
0.0035 0.116181 0.0531204 -0.06229871037590136 -0.7961271926305808 -0.6019139173001811
0.004 0.116181 0.0531204 -0.08230715496857907 -0.7937388655693314 -0.6026642062755091
0.0045 0.116176 0.0530007 -0.09262641643953676 -0.7881006572288728 -0.608537345651841
0.005 0.116176 0.0530007 -0.1152604493671347 -0.7828054973467117 -0.6114986362498721
0.0055 0.116172 0.052881 -0.13302542704657783 -0.7784434329623282 -0.6134574617990238
0.006 0.116172 0.052881 -0.1432516444232337 -0.7758457771582774 -0.6144447057593614
0.0065 0.116167 0.0527613 -0.1447202575221284 -0.7740825237960578 -0.6163215827928261
0.007 0.116163 0.0526416 -0.14520100122895724 -0.7647037627319203 -0.6278095447711441
0.0075 0.116158 0.052522 -0.1399659426238224 -0.7565479243492376 -0.638783823424079
0.008 0.116153 0.0524023 -0.12636894868548335 -0.7413813412856433 -0.6590785959213258
0.0085 0.116149 0.0522826 -0.09971905757629446 -0.7241378317463761 -0.682407876705532
0.009 0.116144 0.0521629 0.06037843152990729 0.7046440272875961 0.7069874396436657
0.0095 0.116139 0.0520432 0.010076229745935871 0.6849222041096381 0.7285465283094157
0.01 0.116139 0.0520432 -0.045610884573579334 0.6711037267843476 0.7399590766417933
0.0105 0.116144 0.0521629 -0.04924220140613363 0.6812333068580951 0.7304083701792184
0.011 0.116153 0.0524023 -0.11425570911210417 0.6941093737702028 0.7107445463593985
0.0115 0.116153 0.0524023 0.22162597936393647 -0.7158643184083917 -0.6621330703874145
0.012 0.116149 0.0522826 0.24564750905533683 -0.7109430027157628 -0.6589517039847482
0.0125 0.116227 0.0543173 0.8053043884262056 -0.1529494424261157 -0.5727925541092825
0.013 0.116264 0.0552749 0.7950262640270953 -0.07564603157363903 -0.6018396110379238
0.0135 0.116292 0.055993 0.7668222719162777 -0.069782733602423 -0.6380548357187895
0.014 0.11631 0.0564718 0.7949642466721598 -0.10310903179141465 -0.5978297199671514
0.0145 0.116324 0.0568309 0.8381904341392613 -0.21154754896532715 -0.502677262907523
0.015 0.116333 0.0570703 0.8365477099228611 -0.26883282282398957 -0.4774063702919161
0.0155 0.116434 0.0597035 0.8197936981762096 -0.30095709801145815 -0.48719925860688174
0.016 0.116457 0.060302 0.7555137861704458 -0.2695108306683973 -0.597128822833757
0.0165 0.116476 0.0607807 0.7130604920030466 -0.2740282812595639 -0.6453318803641291
0.017 0.116494 0.0612595 0.6835304871846755 -0.27163913234355713 -0.6774940995084161
0.0175 0.116517 0.061858 -0.6746246479460716 0.27773771685788007 0.6839176449092469
0.018 0.116531 0.0622171 -0.6618956542131104 0.2931105599106163 0.6899132862923307
0.0185 0.116545 0.0625761 -0.6605441631780601 0.3025913802313166 0.6871097911550258
0.019 0.116573 0.0632943 -0.6400586110997653 0.3040076491090402 0.705623358201976
0.0195 0.116591 0.0637731 -0.6052514506874098 0.3201201569647516 0.7288304100033483
0.02 0.116605 0.0641322 -0.5431770992736229 0.3199016528573618 0.7762870418368586
0.0205 0.116614 0.0643715 -0.5064873328542542 0.31796683930449926 0.8014784281319683
0.021 0.116623 0.0646109 -0.48468570773086744 0.3177782309843643 0.814921321744545
0.0215 0.116633 0.0648503 -0.4862321988204764 0.318820470135566 0.8135918858080761
0.022 0.116646 0.0652094 -0.4980204616533745 0.31352202230324155 0.8085045215120601
0.0225 0.11666 0.0655685 -0.49511037361480337 0.29974898843268055 0.8154852922478705
0.023 0.116669 0.0658079 -0.4896666570444039 0.2950319550617077 0.8204771236734298
0.0235 0.116683 0.0661669 -0.4671550214962629 0.2913868156805198 0.8347813543308169
0.024 0.116692 0.0664063 -0.4620916843520731 0.28775518650518916 0.8388493475541526
0.0245 0.116702 0.0666457 -0.47378241782043606 0.2951765745132458 0.8296993494169126
0.025 0.116711 0.0668851 -0.4623450813833539 0.3145352474483854 0.8290383608936337
0.0255 0.116725 0.0672442 -0.5194393829013233 0.30050838252866224 0.7999233960330825
0.026 0.116739 0.0676032 -0.6730139040667718 0.2584236277467515 0.6930148003866949
0.0265 0.116748 0.0678426 0.7446583642012522 -0.2536329720055074 -0.6173768995814216
0.027 0.116803 0.0692789 0.6928949692985213 -0.2893770441471995 -0.6604222042310745
0.0275 0.116817 0.069638 0.659255497217892 -0.30523650236574207 -0.6871774639869374
0.028 0.116826 0.0698774 0.7171288769874715 -0.3304569082533953 -0.6136158452796789
0.0285 0.116812 0.0695183 0.6900416262810433 -0.33533541196862743 -0.6413990298396497
0.029 0.116918 0.0722713 0.8769505540480911 -0.021245125251148356 -0.4801107897223399
0.0295 0.116951 0.0731091 0.8070017039945331 -0.012960410721412784 -0.5904068745397976
0.03 0.116974 0.0737076 0.7748814196673819 -0.03376346435188691 -0.631204256900428
0.0305 0.116997 0.074306 0.7266866549292775 -0.012563136437384386 -0.6868541862364623
0.031 0.11702 0.0749045 -0.6510207726994363 0.03176519800831021 0.7583949668275245
0.0315 0.117038 0.0753833 0.6085354073054152 -0.03385952538560867 -0.7928040051590896
0.032 0.117047 0.0756227 0.7712353436416779 -0.10102917257604944 -0.628481623443758
0.0325 0.117043 0.075503 0.841312404744753 -0.11777391174350839 -0.5275630230931974
0.033 0.11714 0.0780165 0.8530528751273866 -0.17842799174570204 -0.4903715366928377
0.0335 0.117172 0.0788543 0.7017397739339865 -0.1474413470330443 -0.6970095687034424
0.034 0.11719 0.0793331 -0.607343559957022 0.1497388386982926 0.7802000258677372
0.0345 0.117204 0.0796922 -0.43327639527282863 0.1290849812153018 0.8919689641035884
0.035 0.117213 0.0799316 -0.37188659525740836 0.15028063101274042 0.9160328008375382
0.0355 0.117218 0.0800513 -0.2363264684042711 0.15071113686111814 0.9599145553420858
0.036 0.117222 0.080171 -0.10735349000537156 0.14349053526136304 0.9838118186289867
0.0365 0.117222 0.080171 0.006177123859637113 0.15531015892911623 0.9878464443800137
0.037 0.117222 0.080171 0.05652934699791626 0.15568132009751492 0.986188500998001
0.0375 0.117218 0.0800513 0.121560028916873 0.16176804738617342 0.9793131563573492
0.038 0.117213 0.0799316 0.17354843958453545 0.17420850343655983 0.9692947624165557
0.0385 0.117213 0.0799316 0.2113303956408929 0.17827628210250954 0.9610187464966383
0.039 0.117209 0.0798119 0.23395818345230224 0.1785616300687748 0.9557088011852151
0.0395 0.117199 0.0795725 0.24912619874674027 0.18155112117334324 0.9513019118548547
0.04 0.117195 0.0794528 0.26430634957593896 0.1860436419885601 0.9463244247347069
0.0405 0.11719 0.0793331 0.2694793162856528 0.18662393012701944 0.9447499175962718
0.041 0.117186 0.0792134 0.263814885017273 0.19235155199506399 0.9451997603091175
0.0415 0.117181 0.0790937 0.27543711945695853 0.19469178894514805 0.9413976314727964
0.042 0.117172 0.0788543 0.2887168842061809 0.20058452173221006 0.936166871030873
0.0425 0.117172 0.0788543 0.29300894395075955 0.19875002492326266 0.9352241369628262
0.043 0.117163 0.078615 0.29917409637631304 0.20398628494213192 0.9321397189332316
0.0435 0.117153 0.0783756 0.30474029194474567 0.19994402435332861 0.9312119745744397
0.044 0.117149 0.0782559 0.3243081503596565 0.2129051778083334 0.9216808606414154
0.0445 0.117144 0.0781362 0.3255805450662425 0.21141015344244807 0.9215763971021659
0.045 0.117135 0.0778968 0.34816302932420373 0.20914866225357423 0.9138048709047978
0.0455 0.117126 0.0776574 0.36581751966324605 0.19539757519430248 0.9099435861170833
0.046 0.117121 0.0775377 0.3781017190797416 0.19564311220716762 0.9048551611583135
0.0465 0.117112 0.0772984 0.38730120191857553 0.19303756397915317 0.9015177634885633
0.047 0.117107 0.0771787 0.4030270219571803 0.18998200171865803 0.8952519525783221
0.0475 0.117093 0.0768196 0.4177284962218094 0.1909905947018135 0.8882710713401137
0.048 0.117084 0.0765802 0.4190171497484453 0.19912766477575095 0.8858740324321766
0.0485 0.117075 0.0763408 0.4266502147358248 0.20096561334034108 0.8818063373103048
0.049 0.117066 0.0761014 0.4262613563877236 0.19792674139697783 0.8826812907785415
0.0495 0.117061 0.0759817 0.44327040596234224 0.188399781971654 0.876365716667998
0.05 0.117047 0.0756227 0.4624234823953402 0.18976570670828458 0.8661140222204418
0.0505 0.117038 0.0753833 0.4730503521199251 0.18574612869000828 0.8612326863489852
0.051 0.117029 0.0751439 0.48677162377307837 0.17855872359990116 0.8550848896546439
0.0515 0.117015 0.0747848 0.4866199105475185 0.17460788496898583 0.8559866524458093
0.052 0.117006 0.0745454 0.4963508798886908 0.17569421663960325 0.85015724796835
0.0525 0.116992 0.0741863 0.5127261757498862 0.1707014276152133 0.8414112498124949
0.053 0.116983 0.073947 0.5197322672058 0.16595515137419128 0.8380556414448197
0.0535 0.116969 0.0735879 0.532493001329903 0.16925181913867704 0.82934011433966
0.054 0.116955 0.0732288 0.5400063436447998 0.16170895628453746 0.8259802432750677
0.0545 0.116946 0.0729894 0.5583565786759974 0.16324247878487746 0.8133817210691444
0.055 0.116932 0.0726303 0.5665725269893102 0.17241986348922944 0.805771035924786
0.0555 0.116918 0.0722713 0.5733504491355491 0.16686495223889328 0.8021379870012242
0.056 0.116904 0.0719122 0.5849606364990769 0.17380378625143025 0.7922204854907893
0.0565 0.116891 0.0715531 0.590036363339801 0.18715046133264848 0.7853863983796251
0.057 0.116877 0.071194 0.6087000428360075 0.18083577091146438 0.7725171077783968
0.0575 0.116858 0.0707152 0.6224578094063353 0.19163838508443928 0.75882870588249
0.058 0.116845 0.0703562 0.6329126593613816 0.194040948349295 0.7495129591833686
0.0585 0.116826 0.0698774 0.6403181927607872 0.20210935807724195 0.7410427918799052
0.059 0.116812 0.0695183 0.6456064202448047 0.1928572915016989 0.7389170557331298
0.0595 0.116794 0.0690395 0.6587909058727583 0.18791704490331848 0.728479050195786
0.06 0.116775 0.0685608 0.6687377828523517 0.19581105783560138 0.7172501707319585
0.0605 0.116757 0.068082 0.6867773788068738 0.19172471020563037 0.7011265702109191
0.061 0.116739 0.0676032 0.7096903007481022 0.18991679306696102 0.6784329655428231
0.0615 0.11672 0.0671245 0.7187306858803878 0.1896691324617192 0.6689183966412692
0.062 0.116697 0.066526 0.7356626426917812 0.1830689525713861 0.652139735602854
0.0625 0.116679 0.0660472 0.7433420864556047 0.1850666869697866 0.6428007964197425
0.063 0.116651 0.0653291 0.7470053889079784 0.1941484311441221 0.6358375072506467
0.0635 0.116633 0.0648503 0.7683950074265673 0.19748753929191334 0.6087427900076933
0.064 0.11661 0.0642518 0.7860953341955598 0.20530141282054398 0.5830141125649188
0.0645 0.116577 0.063414 0.8111580513415391 0.20500103084195223 0.5477199951595103
